# 3D point list with one line of data per point:
#   POINT3D_ID, X, Y, Z, R, G, B, ERROR, TRACK[] as (IMAGE_ID, POINT2D_IDX)
# Number of points: 606, mean track length: 3.68034
16488 -5.37922 0.710009 1.5725 31 39 24 1.13519 4 1825 3 1527
9073 1.59204 -0.336481 1.2189 60 52 18 0.469242 58 1908 57 1586 56 1639
4933 4.0314 -1.02688 1.654 101 109 73 0.960625 70 1107 71 1120 69 996 68 1054
13750 -3.03115 0.541783 2.06625 41 50 29 0.499343 17 516 16 608 15 941 13 626
1721 3.90922 -0.431736 1.43161 0 0 1 1.00185 75 2403 74 2488 73 2309 72 2358 71 2265 70 2440 69 2210 68 2274
1947 3.81717 -0.14529 1.42027 44 56 32 1.26839 74 497 73 1288 72 1345 71 1312 70 826 69 1168 68 1259
8456 3.18064 -0.103163 2.58721 28 36 25 0.499402 62 1096 61 953
1725 3.96645 -0.0467202 1.16636 0 1 0 1.57809 75 2431 74 2518 79 2361 71 2302
16327 -5.57183 0.0105549 1.72756 0 0 0 0.798828 94 2330 99 2107 3 2377 100 2606
4166 5.65773 0.0647351 1.29579 202 146 44 0.890462 83 1658 84 1815 86 1952
4781 2.45971 -0.19677 2.10499 0 1 0 0.869019 72 2204 70 2105 69 1893
15254 -2.78336 0.779874 2.1849 28 30 15 0.55631 13 1463 15 990 14 1158
9523 0.746291 0.317665 1.10703 21 19 5 0.680124 54 1633 53 1686 51 1427
1727 4.50145 -0.023882 1.15128 19 21 14 0.634109 75 2438 74 2524 79 2362
15537 0.575742 0.023085 1.15907 253 254 72 2.0584 45 1894 49 1811 50 1944
1729 4.32461 0.115636 1.24304 0 1 1 1.3507 75 2450 74 2535 73 2254 72 2281
8604 1.84543 -0.379463 0.900862 125 166 64 1.35021 61 826 62 1520 60 1274 59 1369
9489 0.769729 0.320709 1.0937 50 68 30 0.258863 54 1634 53 1346 52 1221 49 1139 51 1158 50 1227
1730 3.33677 0.298134 0.916003 21 30 11 1.11686 75 2456 74 2543 73 2260 72 2295
1731 3.64908 0.421058 1.04607 0 1 0 1.73824 75 2464 74 2553 72 2307 70 2210
4282 4.66911 -0.0835558 1.09894 72 92 50 0.388317 77 457 79 917 81 840 80 936 83 750 84 329 80 1460 82 1325
13612 -3.97918 0.425809 1.53049 199 155 38 0.574863 18 1316 17 1486 16 1704 15 1816
1733 3.89102 0.59443 1.0676 0 1 0 0.977758 75 2470 74 2558 73 2273 72 2312 71 2334 74 2688 70 2412 69 2189
8927 1.41121 0.320533 0.873251 238 222 56 0.609576 59 495 58 580 57 565 56 483
12370 -1.43117 0.433618 1.20665 0 1 0 0.943327 31 1591 30 1561 29 1466
1736 3.32468 0.713772 0.900818 39 50 25 0.898137 75 2479 74 2566 73 2192 72 2166 71 2135
6984 2.6781 -0.163349 2.11816 99 89 28 0.37573 69 2038 68 2103 67 1832 66 1621
1737 3.32121 0.722239 0.874305 254 255 94 0.587486 75 2482 74 2567 73 2282 72 2326 71 2234 70 2311 68 2258 67 1976
1963 3.90947 0.531852 1.05067 20 29 10 0.357087 74 1252 73 1517 72 1550
4925 2.27155 1.40318 4.36246 236 221 58 0.0212575 70 969 69 871
1738 3.41261 0.810797 0.994649 0 1 0 0.12356 75 2483 74 2568
9322 0.864539 0.664818 1.15712 43 50 14 0.761539 55 1626 56 1712 53 1926 54 1852 52 1763 51 1225
6508 5.41768 -0.460833 0.995892 87 115 65 0.55225 89 267 90 610
8192 2.89785 -0.3627 2.00575 52 66 44 0.284266 65 569 63 488
15675 0.72301 -0.356742 1.12607 40 47 24 1.32157 52 1369 50 1620 49 1597 51 1533
1741 4.29605 -0.397937 1.01829 0 1 0 0.619324 75 2499 74 2591 73 2299 72 2452
3041 5.63344 0.928322 1.6348 0 1 0 1.17645 80 654 81 259 82 594
8002 3.24786 0.778647 0.902901 68 77 35 1.06406 65 829 64 842
12271 -1.51266 -0.304409 1.19758 0 0 0 1.41723 32 1634 31 1614 30 1642
12135 -2.06754 -0.00830879 1.37016 0 0 0 1.68927 33 1681 32 1649 31 1572
4184 5.05334 0.374848 1.11916 210 143 39 0.0317827 83 2052 84 2022 85 1920
1744 3.77822 -0.367884 1.47319 168 143 61 0.242288 76 2093 74 2610
4916 2.68075 -0.249815 2.1082 86 95 40 0.363921 70 387 69 699 71 447
5823 5.81656 0.159829 1.30487 36 40 23 0.358801 86 1330 87 1345 88 1226 89 1235 90 1180 91 1022
9181 1.44931 0.726024 0.848704 39 41 30 1.12061 57 1819 56 1607
1745 3.9377 -0.297393 1.26372 243 246 111 0.99834 75 2519 74 2614 73 2217 72 2254 71 2156 70 2232 69 2019
6150 6.68214 -0.424084 2.1251 45 47 23 0.303128 87 1175 88 1078
15444 1.34355 1.09792 1.94931 28 32 18 0.924375 52 832 49 1194 50 880 48 428 51 1216 50 1291
1746 3.29798 -0.279876 1.27281 196 206 89 0.624111 75 2410 74 2617 73 2407 72 2373 69 2222
1905 4.2881 0.104486 1.22261 61 82 36 0.549784 74 585 73 866 72 920
2709 5.1937 0.499067 1.10662 98 109 51 0.462387 79 252 80 270 81 241 82 222 83 199 84 488 85 471 86 1032 87 1032 88 541 90 920
7714 6.38614 0.671401 1.14749 73 105 42 2.69901 92 1538 93 1481
13363 -3.52584 1.05951 2.51597 172 124 37 0.11806 20 1090 19 1086 14 1578
1748 3.8901 -0.0831365 1.18496 0 1 0 0.643378 75 2543 74 2647 73 2338
1749 3.1929 -0.0706185 1.2835 0 0 1 0.203425 75 2426 74 2648 73 2339
10371 -0.17036 0.496458 1.39048 76 79 30 1.10322 47 860 46 779 44 1330 43 803 42 898 41 752
1750 3.29635 -0.0692115 1.23975 0 2 0 1.00604 75 2545 74 2649 73 2340 76 2228 72 2390 71 2301 70 2374 69 2164 68 2213 67 1932 66 1719 65 1736 64 1729
2269 3.83816 0.560749 1.03953 50 70 33 0.970056 73 1874 72 1567 71 1533 70 1546
5718 5.75197 -0.21987 1.33133 33 44 24 0.827652 86 1204 87 787 88 1112 89 1126 85 1456 90 1106 91 592 92 785
2080 3.3501 0.412198 0.868049 0 1 0 0.517139 74 2758 73 2447
4576 3.50903 0.118954 1.38184 73 71 34 1.5709 73 1787 70 488 71 535
7516 6.40107 0.38446 1.16971 64 82 26 0.740835 89 897 92 1260 93 1197
3429 4.46837 -0.770689 1.16538 0 3 0 0.853983 81 611 82 6
1753 3.07516 0.0465129 1.37961 0 1 0 1.32231 75 2442 74 2661 73 2349
1754 3.45077 0.319796 0.96617 243 255 91 0.197197 75 2457 74 2670
6426 6.63104 -0.236861 1.96099 2 0 2 1.90749 88 1980 89 1897 90 1750 91 1518 86 1944
8671 2.20212 -0.0843641 0.916211 30 46 21 2.04119 61 628 60 1012 59 1070
4219 5.51728 -0.00354573 1.22093 41 42 18 0.196115 83 2230 84 2274
16289 -5.19873 0.231006 1.67497 23 25 12 1.38278 94 1719 99 1522 3 1409 4 1393 100 1597
3530 4.80295 0.453137 1.15143 42 59 21 0.574347 81 553 82 1015 83 944 84 914 86 1010
2111 4.17124 0.494476 0.653451 0 0 0 0.558796 77 2345 73 2184
15620 0.617384 -0.36741 1.02615 71 92 38 0.398596 52 537 50 980 51 889
1757 3.32971 0.338642 0.945666 246 255 118 1.62241 75 2572 74 2678 73 2364 72 2414 69 2084 68 2148 67 1783 66 1532 65 1509
1759 3.91431 0.56619 1.07337 36 52 26 1.40503 75 2588 74 2687 73 2452 72 2424 71 2333 70 2410
2831 4.11466 0.648527 0.90528 49 37 11 0.932947 79 1694 80 1720 81 1579
1761 3.39293 0.631245 0.846906 255 254 80 0.818881 75 2597 74 2692 71 2344 70 2420 69 2193
4308 3.33638 -0.0442126 1.25404 0 3 0 0.334831 73 817 71 499 69 412
2654 4.30535 -0.129343 1.0263 79 60 13 1.4511 76 129 79 893
7361 2.40788 0.354541 1.38562 72 103 46 0.339207 67 1192 69 1287 66 1027
15606 1.23549 0.235486 0.958056 58 80 38 0.229791 49 397 50 816
1763 3.37575 0.699746 0.843045 250 255 139 0.780693 75 2606 74 2698 73 2387 72 2443 71 2351 70 2425 70 2426 69 2197 68 2259 67 1977 66 1767
1765 3.31642 0.836001 0.99466 0 2 0 0.355541 75 2686 74 2700
13091 -2.82207 0.820754 1.98199 63 80 36 0.47932 21 588 20 469 18 238 17 934 16 1106 15 1006 13 1086
1771 3.29833 0.410265 0.903027 252 254 100 0.404852 75 2664 74 2756 73 2446
1774 3.68888 0.561124 1.08291 200 167 48 0.579929 75 2585 74 2764 73 2490 72 2505
8896 1.63131 0.0672446 0.674719 51 76 18 1.60792 59 1494 58 1736 57 1677 56 771
1832 4.16233 -0.186139 1.27049 0 0 0 1.21315 75 2696 74 2726 73 2413 72 2463
16391 -5.33328 -0.319437 1.85419 111 131 58 0.361436 94 67 99 272 100 92 95 374 98 412
3009 4.61903 -0.427597 0.976001 0 0 0 2.01111 79 2658 80 2690 84 2346
8011 2.25044 -0.128059 0.916489 95 107 53 0.456002 65 938 64 957 63 849
13338 -3.56961 0.763022 2.16565 23 32 18 0.611698 20 465 19 942 17 568 16 648 15 586
1775 3.33616 0.554634 0.839977 251 255 104 1.00059 75 2671 74 2768 73 2455 72 2508 71 2399 70 2490 69 2269 68 2324 67 2033 66 1827
7078 2.45983 -0.290724 0.976134 51 73 40 0.0843862 68 32 67 260
3435 4.44589 -0.127388 1.06194 38 51 23 0.0999829 81 131 82 100
1776 4.12376 0.641248 0.919451 253 253 116 0.50703 75 2675 74 2772 73 2457 72 2510 71 2337 70 2418
7397 3.38526 -0.768328 2.0061 2 1 0 0.751086 67 1681 66 1487 65 1594 64 1591 63 1468
14685 -2.98568 0.228595 2.58136 0 0 0 1.00647 11 1932 10 1923 9 1819
8476 2.04474 -0.287173 0.901503 40 39 18 1.86641 62 983 61 1196 59 1406 58 1643 63 774 57 1571 60 1305
9434 0.827828 0.0584928 1.09916 31 42 18 0.580778 54 1131 53 769 52 686
1777 3.46688 0.614559 0.831521 255 253 152 0.825082 75 2677 74 2774 73 2460 72 2429 71 2340 70 2494 69 2271 68 2326 67 1971
16333 -5.25949 1.14612 2.19344 56 54 33 0.143379 94 1099 99 541 100 1298
1778 3.47121 0.606542 0.817967 255 253 152 0.465059 75 2678 74 2775 73 2461
6906 2.38255 0.390121 1.35488 53 86 27 0.675081 69 1296 68 1399 67 1504 66 1036
11722 -1.39238 -0.227543 1.10958 0 0 2 1.34271 37 1421 36 1277 35 1514 34 1355 33 1659 32 1577 30 1526
3627 4.63621 -0.154479 1.07567 27 29 18 0.832724 81 1708 82 1713 83 1832
14807 -4.18685 0.525793 1.45325 61 98 34 0.233975 10 1807 9 1624
1781 3.96778 -0.239409 1.27272 0 0 0 0.683541 75 2695 74 2801 73 2474
13716 -2.91328 -0.03073 2.22914 230 228 83 1.21091 18 1655 16 2157
12798 -2.76993 0.858269 1.9928 0 2 0 0.847212 26 601 23 646 22 405
12699 -2.39602 0.249926 1.10945 145 195 69 0.430677 25 162 26 160 24 157 23 397
1782 3.07607 -0.0051756 1.3827 44 58 29 0.235872 75 2647 74 2803 73 2426
1783 3.06976 -0.00492553 1.39541 44 58 29 0.218665 75 2646 74 2804
4832 3.97154 0.560223 0.965123 0 0 0 0.302953 71 2398 72 2507 70 2488
8223 3.08856 0.204371 1.42312 18 21 11 0.499881 64 1342 63 1242 62 1451
1784 3.24855 -0.00257855 1.24905 0 0 0 1.86442 75 2702 74 2805 73 2478 72 2535 71 2421 70 2514 69 2288 67 2049
7105 2.55065 -0.476509 2.39497 0 2 0 0.0440832 68 740 67 614
16567 -5.61683 1.13772 2.22004 1 0 4 1.65144 6 2093 99 1944 95 2235
3397 4.67651 0.0198148 1.14254 97 132 62 1.35717 77 936 81 1347 82 1362
1785 3.31799 0.0239239 1.26946 0 1 0 1.73625 75 2649 74 2807 73 2479 72 2536 71 2422 70 2515 69 2289 68 2345 67 2050 66 1840
2048 3.50286 0.120247 1.17249 0 2 0 1.43581 74 2537 73 2163 72 2214
5907 4.90005 0.708032 1.13366 118 174 61 0.311382 86 1799 87 1810 88 1689
1789 3.34242 0.600889 0.839824 0 1 0 0.925931 75 2713 74 2820 73 2493 72 2547 71 2429 70 2522 69 2301 68 2355 67 2061 66 1848
6311 5.89921 0.267206 1.50471 0 0 0 0.205242 88 2257 90 2060
11581 -0.321574 -0.599749 1.45172 91 100 47 0.68622 40 363 38 660 37 999
1790 3.38332 0.337748 0.972594 0 0 0 1.08106 75 2723 74 2828 72 2567
4836 3.34592 0.748148 0.867082 2 3 2 1.83397 71 2354 70 2503 69 2280
1791 3.38445 0.339222 0.969698 0 0 0 2.13754 75 2722 74 2829 72 2566 71 2444 70 2543
10487 0.265296 -0.278756 1.22297 36 42 23 0.342056 47 1711 46 1647 45 1662 44 1632
4744 3.39377 0.593651 0.809389 53 71 21 0.170711 71 1845 70 1925
1792 3.38324 0.723604 0.923965 1 0 0 0.0468285 75 2727 74 2834
6264 5.99586 0.414717 1.88099 0 1 0 0.931424 87 2139 88 2015 89 1925 90 1941 89 2017 91 1743
1793 3.58488 0.786184 0.969294 0 0 0 1.63542 75 2729 74 2835 73 2513 72 2573 71 2432 70 2526 69 2277 70 2502
2640 4.94216 0.945871 1.1764 245 205 70 0.311657 78 2490 79 2608
9001 1.38767 0.442758 0.832863 255 255 83 0.933745 59 2044 58 2402 57 2347 56 2050 55 1985 54 2314 53 2343 52 2190
1798 3.88528 -0.203926 1.2398 53 76 36 0.821912 77 415 74 110
1799 3.87862 -0.0482402 -0.0999123 55 64 35 1.04771 75 961 74 115
8760 1.46292 0.700318 0.847317 185 162 49 0.837798 60 847 59 1310 58 1859 57 1813 56 1720
10631 0.624954 -0.287865 1.00234 35 42 30 0.717325 46 546 45 525 44 311
1801 4.96469 0.23865 1.64652 29 50 19 1.18867 78 976 74 183
7234 2.71952 0.313643 1.5473 0 0 2 1.02582 68 2307 67 1947
1802 4.2246 -0.650824 1.39359 0 1 0 0.188072 74 319 73 16
1810 4.53856 -0.643327 1.13376 37 55 33 1.64877 76 1087 74 1339
1874 4.01515 -1.05262 1.70578 167 168 132 1.71752 75 741 73 560 74 778 71 1119 72 1125 70 1106 69 1464 68 1824 67 1356
7520 5.67728 0.856154 1.54983 26 24 12 0.823054 91 1143 92 1345 93 1246
2887 5.02791 -0.436902 0.968033 216 186 63 1.17431 79 2055 80 2068 82 2050 83 1923 84 1886 85 1694
1814 4.62716 0.257512 1.09894 42 59 27 1.96724 76 1414 74 1692
8706 1.47506 -0.109665 0.94571 133 111 34 0.201091 60 348 59 376 58 389
1815 3.32339 0.349315 0.934425 69 57 9 0.724051 75 2029 74 1728 73 1831 72 1509 71 1801 70 1857 69 1652 68 1758 67 1521 66 1333 65 1132
3980 4.49547 -0.578454 1.16293 76 80 30 2.32205 82 2185 83 2180 84 2049
1954 3.26122 -0.0295176 1.24344 1 1 4 0.0964162 74 1612 73 1346
3953 5.21826 0.683548 1.22547 113 98 12 1.00398 82 2460 83 2332 84 2234
6782 6.7765 0.8283 1.12298 253 247 113 1.35592 90 1969 91 1821 93 1819 92 1969
3901 5.67611 0.0700531 1.29527 36 38 16 0.867894 82 1775 83 1850 84 1816 85 1729 87 1875 88 1735 90 1621 91 1445 92 1597 93 1448
4582 3.30739 0.323717 0.914969 75 109 32 0.0252106 71 991 70 541
7104 2.46195 -0.279409 1.14108 44 63 35 0.413907 68 722 67 598
8068 2.48945 0.22156 1.5611 30 27 9 1.23192 65 1339 64 1340 63 1240 61 1299
1823 4.71533 -0.881048 1.40063 0 0 0 1.55896 75 1815 74 2398
4473 2.76686 0.348709 1.43772 79 91 29 0.898901 72 2485 71 2314 70 2384 69 2172 68 2230 67 1952 66 1745 63 1555
16506 -5.86197 0.077205 1.86679 206 176 52 1.18916 4 1711 3 1708 100 2199
1826 3.96592 0.46226 0.93473 1 0 3 1.62105 77 2117 74 2452 73 2180
2879 4.52569 0.616593 1.17308 75 108 55 0.963478 79 1995 80 2016 81 2034 82 2027 83 1774
3617 4.94331 -0.45586 1.05147 54 69 47 0.868545 80 1274 81 1641 82 1634
1829 4.25813 -0.187736 1.22717 0 1 1 1.32408 74 2626 73 2411 72 2460
15956 -5.43974 -0.522808 1.75791 126 127 60 0.929886 4 681 5 684 3 688 99 1396
1830 3.23967 -0.117645 1.28235 0 2 0 1.21898 75 2536 74 2639 73 2334 72 2470 71 2297 70 2370
1834 4.31337 0.0708765 1.25734 37 51 18 1.92266 75 2653 74 2744 72 2395
1935 3.11518 -0.389773 1.38628 78 97 50 0.227011 74 911 73 1146
1858 3.59267 -0.354075 1.20201 168 161 54 0.60136 74 388 73 305 72 306
1911 3.3042 0.329925 0.933125 63 101 24 0.73381 74 643 73 927 72 992
15864 0.625735 0.478146 1.23258 55 74 29 0.612414 50 1554 51 1451 52 1553
6030 5.29084 -0.660744 1.08245 72 89 53 1.41543 86 1099 87 1825 88 1446 89 1634
1835 3.95252 0.496701 1.01737 1 0 0 1.74858 75 2581 74 2759 73 2488
8839 1.54355 -0.544228 1.44457 0 0 0 0.922306 60 1699 59 1842 58 2199
13202 -2.93154 -0.0351694 1.97783 79 97 42 0.985255 21 679 18 1000 19 828 17 1416 13 1293 14 1745
2019 3.3335 0.636257 0.810424 116 167 61 0.591466 74 2191 73 1907 72 1935 71 1588 70 1618 69 1733
4993 2.34268 -0.459197 2.05256 42 45 24 0.074394 70 1975 69 1777
8489 2.24035 -0.103163 0.949678 39 51 29 1.2467 62 1405 61 1420 60 1336 58 1928
2164 3.27215 -0.0492549 1.23369 71 96 41 0.610718 75 194 72 421 71 496 70 133 68 514 67 375 66 282 65 338
11059 0.118987 -0.0697727 1.13761 109 89 36 0.559078 46 1010 43 1278
1986 4.16904 -0.29065 1.1912 32 43 22 0.446104 74 2235 73 1696 72 1717 71 1681 70 1719
2367 4.29349 0.124696 1.25717 121 111 43 0.347052 73 2355 72 2482 71 2382
1852 3.98491 -0.577138 1.32045 124 141 56 0.74354 74 32 73 20 72 264 71 306
1853 3.98571 -0.145835 1.13359 30 45 16 0.330884 74 121 73 118 72 121
1982 3.63568 -0.629508 1.89664 0 1 0 0.142212 74 1397 73 1656
4217 5.88417 -0.408024 1.55274 250 254 159 1.01937 83 2301 84 2258 85 2134 86 2194 87 2201 89 1980 90 1893 91 1706
10940 0.364482 -0.157326 1.098 237 217 72 0.928843 45 1560 44 1447 43 1262 42 715
4326 2.51831 -0.529673 2.25322 59 65 34 0.35573 72 709 71 756 70 712 69 616 68 711 67 581 66 461
3649 4.74093 0.402903 1.15177 0 2 0 1.22263 80 2141 81 1483 84 1388 82 1863 85 1281
2911 4.93634 -0.586013 1.31396 80 91 47 0.518897 77 272 80 2309
1861 4.24989 -0.172773 1.1679 44 55 38 0.670385 75 958 73 373 74 1019 72 803 71 850
6461 5.82355 -0.0108494 0.889465 3 0 0 1.55416 86 2027 89 1908
3932 5.59925 0.330853 1.31319 0 1 2 1.67324 83 2136 84 2111 81 2162 85 2093 84 2213 86 2149 87 1990 85 1914 88 1854 82 2265
16929 -6.1646 -0.201152 2.0956 252 250 136 0.633157 99 1972 95 2318
1863 3.29462 -0.133878 1.23146 41 56 28 1.23022 74 126 73 387 72 394 71 456 70 817
2408 4.17436 -0.314544 1.20029 47 56 26 0.67928 77 788 78 362 76 740 75 873 74 1459 73 1169 72 1243 79 109 71 1237 70 728
2393 4.00351 -0.179967 1.21478 76 75 28 0.411406 72 2462 70 2361 69 2156
1866 4.43033 0.435645 1.17876 22 27 9 0.805845 74 658 73 481 72 994
16250 -5.34103 -0.331882 1.87818 63 73 39 1.01469 94 1207 99 1036 3 764 100 1387 95 774 98 867
1903 4.27564 0.0961621 1.24144 65 81 52 0.284273 74 577 73 862 72 1428
6726 5.78902 0.196167 1.35876 65 60 22 0.750971 90 829 91 1032 92 1210 93 1342
1867 3.90895 0.516894 1.08055 113 95 29 0.63582 74 692 73 512 72 548 71 255
2162 3.31571 -0.0890522 1.22759 25 36 25 0.294436 73 799 72 411
1868 3.9664 0.493529 0.932602 96 117 39 0.554755 74 715 73 525 72 559 71 633 70 587
1871 3.2747 0.619665 0.845163 48 61 26 0.0170979 74 1292 73 544
1938 4.14583 -0.319619 1.20734 31 38 21 1.22778 75 870 73 1168 72 705
3562 4.39937 -0.231165 1.1031 43 50 28 0.444032 80 1385 82 1262
5593 5.97014 0.565657 1.9545 0 0 0 0.774074 85 2206 86 2348 87 2357 88 2224
8576 3.13856 -0.113434 2.65195 27 31 19 0.156596 61 636 60 364
1878 4.05711 -0.61841 1.25852 179 238 116 0.142685 74 311 73 577 72 1144
1879 3.99932 -0.623047 1.33452 49 61 47 0.76806 75 352 73 589 72 259 71 302
2793 4.4821 0.016289 1.16592 37 45 12 0.353952 79 1481 80 1490 82 1360 83 1252 84 1236
1880 4.2911 -0.414549 1.00622 125 145 67 0.167136 74 353 73 610
2846 4.02765 -0.12922 1.23755 37 34 16 0.543225 79 1852 80 1888 81 1303
2642 3.92606 -0.721938 1.45636 0 0 0 0.696769 78 2520 79 2638 80 2665
1881 3.92965 -0.446097 1.34425 33 42 29 0.800045 76 698 73 628 72 1194 71 713 70 685 69 596
1882 4.33006 -0.395396 1.17341 48 51 24 0.091145 74 884 73 632 72 660
1883 3.54827 -0.401659 1.22836 85 105 54 1.1127 74 1414 73 635 72 1202 71 718 70 687
3491 4.91923 0.902701 1.14454 167 156 52 1.06865 80 287 81 594 82 607 84 532 85 507 86 257 87 271 88 237
8333 2.00861 -0.294491 0.906954 149 98 30 1.01288 63 1141 62 1363 61 1191 60 921 59 1404 58 1640
12050 -1.85137 0.449152 0.956177 159 214 70 1.12311 33 1169 32 1123 31 1031 29 1017
1884 4.02749 -0.393611 1.20438 54 64 39 0.356003 74 887 73 639 71 340 70 40
3510 4.66656 -0.128322 1.10048 38 46 33 0.51612 81 820 82 813 83 737 79 890 84 674 85 633
1886 3.10596 -0.397171 1.38434 90 116 61 0.402758 75 856 73 649
14461 -4.22638 0.290401 1.54623 31 27 9 0.268169 12 1526 11 1703 8 1302
1887 4.25458 -0.293278 1.24352 44 56 33 0.920143 74 1959 73 692 72 334
8304 1.8984 -0.532954 0.880217 50 58 41 1.02982 63 717 62 919 61 1148
1888 3.92018 -0.280685 1.26378 52 59 26 0.326452 74 436 73 698 72 750 71 795
3883 5.30654 -0.0203152 1.00167 36 35 5 0.64991 82 1978 83 1644 84 1616 85 1509 86 1664 87 1280 88 1180
16441 -5.25444 0.812039 1.7748 54 73 28 0.964523 94 1525 99 939 3 1082 100 1735 95 1153
14313 -3.43556 -0.0208077 2.2993 3 0 0 0.822832 13 1857 12 1633
3150 5.60654 0.894916 1.59885 28 25 15 0.604215 80 1136 81 1056 82 1060
2024 4.45292 -0.511855 1.02293 0 0 0 0.2605 75 1833 73 1932
7753 2.67551 0.548787 1.33524 171 221 64 0.0641775 66 370 65 435
1889 3.65202 -0.288626 1.463 68 88 53 0.594922 77 814 73 707 72 761 71 805
8233 2.654 0.823298 1.45401 255 216 60 1.40344 65 1585 63 1465 62 1610 61 1383
4231 4.55124 -0.242659 1.00452 27 30 12 1.84987 82 1682 83 1150 78 1742 77 1689 76 1625 79 1811 80 1840 84 1561
1893 4.00756 -0.145508 1.16661 56 79 27 0.275306 74 1035 73 771 72 386
15800 0.756756 -0.653814 1.18406 163 177 128 0.0221807 50 512 51 168
3808 5.26601 0.420839 1.08337 38 50 31 0.227989 82 1010 83 509
1896 3.26968 -0.11825 1.25908 31 45 22 0.434243 74 505 73 787 72 1355
6236 5.1688 0.282536 1.0255 31 29 14 0.728757 87 1752 88 1784 89 1713
4010 4.56406 -0.248225 0.984564 79 102 50 0.0700482 80 864 84 279
16212 -5.69508 0.118043 1.7517 255 238 57 0.467027 4 2065 94 2057 3 2038
1897 3.89458 -0.103464 1.18797 61 84 44 0.19857 74 1572 73 792
16426 -4.63324 -0.631454 2.33087 233 250 205 0.310851 4 331 3 726
6323 5.32254 -0.0492316 0.993056 109 134 51 0.396113 87 133 89 111
12297 -1.70372 0.461711 1.07404 46 65 30 1.62306 33 817 31 1012 30 1053
2228 3.30434 -0.287919 1.23162 38 54 37 1.68188 73 1185 72 1266 68 1613
1899 4.01285 -0.0968294 1.16735 31 39 22 1.02651 74 136 73 795 72 845
6929 3.87783 -0.209222 1.23248 255 254 81 0.0452245 69 1540 68 1640
7989 2.27175 0.291561 1.3763 26 28 16 0.611352 65 391 64 728 63 626
1900 3.29995 -0.0855616 1.21921 24 34 19 0.472456 74 1062 73 800 72 852 70 858 69 749 68 833
5796 5.36799 -0.198369 0.994759 45 53 40 0.725198 86 1195 87 1215 88 1109 89 1121 90 1420
5973 5.35974 0.052335 0.971571 0 0 0 1.1746 86 2131 87 2127 88 2001 85 1893
11072 -0.329366 0.147766 1.31174 48 63 26 0.939845 44 1659 43 1433 42 1025 41 1149 40 1067 39 1083 38 800
1914 3.31316 0.374535 0.890062 38 52 27 0.965941 75 1150 73 951 72 1017 71 606
1916 3.91234 0.518638 1.07256 40 47 20 0.884617 74 1248 73 977 72 1037 71 1053
1919 3.98117 0.50071 0.932628 72 85 23 0.63425 74 1262 73 987 72 561 71 634 70 1033
10719 0.771042 0.999006 1.16444 104 93 47 0.0878481 46 1247 45 1251
3791 4.72898 0.390303 1.00738 53 71 29 0.0209135 82 546 83 190
1920 3.97687 0.515097 0.932896 38 43 23 1.01383 74 1268 73 994 72 1052 71 637 70 1037
3312 4.59424 -0.361079 0.973644 23 31 18 0.825491 80 2247 81 2124 82 2126 83 2005 84 2056
1922 3.32458 0.538587 0.847255 83 95 32 1.46458 74 1811 73 1009 71 1548 70 1567 69 1412 68 1797 67 1551 66 1369
4698 3.53493 0.738446 0.934171 251 205 51 0.183691 71 1857 70 1630 69 1448 68 1550
12673 -2.98445 0.538149 2.06044 117 110 42 0.583546 26 1097 25 1035 24 1087
6686 6.58218 -0.421483 2.14923 0 1 0 0.13329 86 363 91 268
3856 5.4981 0.438655 1.2998 29 42 22 0.313164 82 989 83 1403 84 1379 85 1276
14752 -4.40548 0.737314 1.58995 27 39 17 0.755824 11 696 9 253 8 579
7189 3.0611 0.127933 1.5448 40 37 19 0.339036 68 1700 67 1470 66 1275 65 1332 64 1329 63 1236 62 1437 61 1283
1923 4.12951 0.608002 0.906718 86 117 47 0.737627 75 709 73 1011
5208 4.89963 0.907207 1.16699 64 68 42 0.490815 83 1004 85 1376
5876 5.60978 -0.137932 1.14625 60 63 32 1.09742 86 1638 87 1655 88 1538 89 1487 90 1613
6286 6.0312 -0.186486 1.32658 251 252 141 0.0149177 87 2347 88 2213
14006 -2.22745 -0.985434 2.96026 255 255 247 0.643911 17 1001 18 877 15 1514 14 1250
1928 4.05524 -0.602216 1.26522 61 89 50 0.527988 74 1360 73 1064 72 1149
7097 3.36085 -0.798066 2.04408 132 145 123 0.705007 68 8 67 538 66 436 65 491 64 494
1930 3.89793 -0.475763 1.34723 50 61 36 0.740553 75 821 73 1104 70 1149 71 706
1934 4.26038 -0.372928 1.26714 31 39 26 1.68698 75 1389 73 1145 72 1215 71 1199
2877 5.23505 0.478703 1.11903 24 27 16 1.68909 79 1965 80 1996 81 1514 82 1524 83 1438 84 1420 85 1315
1936 3.91422 -0.377335 1.39726 28 35 27 1.38763 75 1397 73 1154 72 1229 71 1217 70 1221
10909 0.639498 0.319687 1.09772 49 63 30 0.254932 46 446 44 904 43 784 45 781
2413 4.60846 -0.283917 0.978843 74 99 42 0.26698 76 343 79 106 80 127
12237 -1.6254 0.267085 1.08904 2 0 0 0.555376 32 1418 31 1355
1937 3.83995 -0.370222 1.38144 64 81 44 0.28338 74 1447 73 1156 72 695 71 754 70 718
1939 3.96205 -0.310998 1.25183 84 115 48 0.908544 74 1467 73 1177 70 1248 69 1093
2124 3.72992 0.412832 1.09166 0 0 0 1.5011 74 2831 73 2510 72 2568
7177 3.94857 -0.853627 2.1468 252 255 248 1.01429 68 1568 67 1362
2015 3.35866 0.561018 0.837611 31 37 8 0.827683 75 2081 73 1884 72 1588 71 1555 70 1576 69 1420 68 1519 67 1312 66 1127
12005 -1.66345 0.249028 1.07465 0 1 0 1.35157 34 1327 33 1631 32 1606 31 1532
3898 4.91489 0.696182 1.12688 40 62 15 0.304196 81 1897 82 1905 83 1786
1945 3.88475 -0.14179 1.21524 44 48 28 0.557007 74 1549 73 1282 71 1309 70 1323 69 1164 68 1255
1948 3.31507 -0.105218 1.20925 47 57 33 0.302704 74 1567 73 1310 72 1779 71 1725
5828 5.38359 0.200667 1.1911 24 37 20 0.651427 86 1360 87 1373 88 1257 89 1263 90 1487
7654 6.08603 0.43084 1.96636 25 38 22 0.901099 92 1229 93 1166 91 1051
5534 6.59215 -0.58952 2.24968 63 80 54 0.990821 85 1431 86 1826 88 1491
6563 5.4428 0.889366 1.6403 21 20 2 1.03897 89 1615 90 1326 91 1149
1949 3.23677 -0.0801369 1.24368 38 44 32 0.980234 74 1585 73 1324 72 1784 71 1733 69 1574 68 1673 66 1248 65 1300 64 1293 63 1197
5594 5.63121 1.01307 1.31911 0 0 0 1.14989 83 2333 86 2352 87 2358 88 2231 91 1860
7084 3.30373 -0.104904 1.21425 69 82 40 0.71184 68 169 67 363 66 552 65 625 64 626
1951 3.4746 -0.0736958 1.25072 61 86 48 0.751604 74 1590 77 1368 73 1327
1952 3.31639 -0.0439327 1.25346 33 38 15 0.150652 75 1552 73 1338
4543 3.97646 -0.508749 1.32644 0 0 0 1.52204 72 2553 71 2451 70 2530
1953 3.25932 -0.0299602 1.24795 1 1 4 0.527936 74 1613 73 1345 70 1372 68 1305
13787 -3.03323 -0.423641 2.19647 127 135 79 0.640475 17 1380 16 1199 13 1621
13446 -2.97741 0.230761 2.05971 25 32 19 1.34541 18 1049 19 874 17 1157
1956 3.33494 0.320325 0.953372 50 60 36 0.478519 74 2099 73 1450 72 1485 71 1459
11194 0.251597 -0.0896869 1.5465 67 52 18 1.12658 43 1776 42 1409 41 1476
3741 4.41 -0.66445 1.10948 0 0 0 0.474847 79 2682 82 2540
1957 3.83617 0.422346 1.13919 33 48 15 0.166331 74 1732 73 1470 72 1505 71 1477
1959 3.32738 0.375065 0.890375 104 154 60 0.439572 74 1746 75 1690 73 1493 72 1018
6381 5.67381 0.264481 1.22564 90 116 52 1.11467 88 1279 89 1277 90 1220 91 1321
11691 -0.566932 0.164178 1.38025 26 31 24 1.00112 38 166 36 780
1962 4.05455 0.465291 0.947114 45 68 40 0.335607 74 697 73 1509 72 1543
11956 -1.02927 -0.225939 1.06902 115 161 70 0.626199 34 986 33 1246
1964 3.89037 0.562039 1.11785 0 0 2 0.649459 74 2146 73 1518
2025 3.92411 -0.388791 1.3919 255 245 87 0.533119 74 1945 73 1951 72 1977 71 1896 70 1973 69 1877 68 1945
1965 3.95129 0.495292 0.945762 77 117 44 0.275161 74 1256 73 1520 72 1888
1966 3.97511 0.490071 0.924665 145 200 81 0.769654 74 1784 73 1524 72 1557 70 1542 71 1530
8935 1.43054 0.14543 0.874298 38 63 21 0.259639 59 1192 58 919 57 518
15280 -4.16462 0.685265 1.44244 40 58 23 0.728624 16 692 14 1618
12944 -2.84225 -0.0929739 1.92135 1 0 5 1.4741 23 1051 22 1124 21 1021 20 1196
2472 4.96955 0.115605 1.02557 60 78 40 0.215736 78 2110 79 977
1967 3.97316 0.486138 0.914598 145 200 81 0.128133 74 1783 73 1525 72 1558
1969 3.33375 0.515404 0.81267 104 128 42 1.36994 74 1278 73 1553 72 1580
4216 4.66255 -0.814332 1.20924 255 249 109 0.224011 83 2286 84 2247 85 2120
1970 3.99509 0.666616 1.02364 42 39 12 1.38047 75 1210 73 1557 74 1821 72 1586 70 1915 71 1831
1972 3.33977 0.574949 0.842449 39 38 9 0.639598 74 2163 73 1564 72 1594 71 1558 70 1580 69 1423
5579 4.74811 -0.497291 1.23086 0 0 1 0.814861 85 2050 86 2187
3494 4.67028 -0.855762 1.25286 0 0 0 1.07995 79 4 80 672
1973 3.41021 0.615192 0.841879 38 49 26 0.313046 74 1835 73 1573
4427 3.77016 -0.38599 1.54977 230 194 76 0.142795 72 1982 71 1901 70 1978
1974 3.27669 0.630396 0.85531 50 46 20 0.656365 74 1839 73 1580 72 1608 71 1572 70 1599 69 1430 68 1529 67 1323
5573 5.37761 0.217802 1.17911 140 169 58 0.26153 85 1999 86 2141 90 1939
8277 2.5503 -0.0961187 0.297744 0 0 0 0.182901 64 1646 63 1526
14499 -4.47425 0.0167544 0.965433 0 0 0 1.25902 12 1920 11 2103
12153 -1.57646 0.197627 1.16578 52 60 35 0.337867 32 145 31 133
1978 3.61039 0.837026 0.961537 69 84 37 0.97696 74 1874 75 1809 73 1606 72 1639 71 1609 70 1645 69 1458 68 1560 67 1352
2051 3.90385 -0.494699 1.37223 0 1 0 0.757912 75 2320 73 2205 72 2242
3322 5.05382 0.375888 1.12344 207 138 34 0.419024 80 2219 81 2163 82 2165 83 2051 84 2021 85 1919 86 2061 87 2062 88 1934
1983 3.60173 -0.38922 1.25343 120 156 68 0.109108 75 1872 73 1668
6520 5.63189 0.0602112 1.30775 49 64 30 0.369446 89 798 90 783 91 347 93 797
2365 3.30019 -0.171147 1.26429 0 0 1 0.835004 73 2417 72 2468 71 2371 70 2454 69 2228 68 2290 67 2000
1985 3.14252 -0.341598 1.34108 48 56 34 0.295989 74 1948 73 1685 72 1248
5622 5.05755 -0.100394 0.952419 0 2 0 1.40054 85 2067 86 2215
2211 3.31974 0.565679 0.842174 96 85 31 0.346851 73 1013 72 1066 71 1556 70 1577 69 1421 71 1073 68 1520 67 1313
1988 4.19162 -0.254395 1.29027 25 28 17 0.120748 74 1968 73 1706 72 1731
2205 3.45741 0.321088 0.967693 78 99 40 0.448253 73 471 72 981 71 987 70 966 69 872 68 962 67 836
1991 3.92431 -0.172747 1.16313 53 57 20 1.54958 74 1991 73 1725 72 1752 71 1709 70 1755
2804 5.0197 0.146741 1.04535 89 126 49 0.0788574 79 1896 80 1538
4787 2.68347 0.328908 1.48569 254 204 58 0.0785132 71 2047 70 2133
3849 5.70059 0.0588257 1.2738 44 59 25 0.734871 82 1771 83 1259 84 1630 85 1522 86 1279 87 1298
8605 2.02073 -0.334202 0.89382 145 111 37 1.27834 62 607 60 1284 59 1386 58 1129 56 1412
1999 3.11525 -0.0188632 1.33383 22 30 15 0.164598 74 1623 73 1763
12911 -3.48178 -0.0853517 2.26786 0 2 0 0.549844 23 1011 22 1092 21 991 20 1155
2002 3.37801 0.0118961 1.24775 62 102 28 1.28102 74 1103 73 1771 72 1408 71 920 70 1391 69 1234
16856 0.809413 0.487973 1.0906 39 41 11 0.354552 54 1668 53 1390 52 1255 46 1208 45 1211 44 1346 50 1258 51 1187
2006 3.43407 0.313092 0.976096 54 67 31 1.03746 75 2018 73 1817 71 1787 70 1841 68 1906 67 1650 66 1453
5513 5.1924 0.078748 0.995091 56 72 35 0.157181 85 1132 86 1690 87 1323
14460 -4.21958 0.278906 1.54361 15 22 15 0.379539 12 1197 11 1701 10 1652 9 1588 8 1298
3683 5.61944 0.354544 1.26527 0 0 0 0.379479 81 2086 82 2090
5327 5.46678 -0.244345 1.03182 2 3 0 1.79051 83 2083 85 1966 89 1881
2007 3.82511 0.422268 1.13643 195 155 38 0.590081 74 2114 73 1829 72 2041 71 1962
15533 0.273291 -0.094121 1.37464 182 148 41 3.36367 45 1572 49 1525
4195 5.215 0.45545 1.10131 254 255 128 0.374959 83 2151 84 2120 85 2016 86 2161 87 2159 88 2041 89 1946 90 1851
13969 -2.91809 0.46999 1.95445 70 93 42 0.777134 16 1408 15 931 13 1021 14 694
2009 3.30207 0.376805 0.871572 40 48 21 1.37625 74 2288 73 1841 72 2048 75 2203 71 1810 70 1872
12942 -2.45698 0.403898 1.21282 0 0 0 1.58294 24 989 22 1112
2014 3.96109 0.478294 0.923249 42 56 21 0.143039 74 2148 73 1867 72 1887
2757 4.96894 0.316579 1.15517 15 19 8 0.143742 79 1560 80 1036 81 513
2018 3.57661 0.670277 0.875758 177 208 89 1.22265 74 2320 73 1905 72 2078
5426 5.28807 0.416552 1.09512 117 143 69 0.275192 85 836 86 996 87 607
4302 3.85449 -0.201092 1.20741 136 172 89 0.0904679 72 1302 71 434 70 378
9196 1.33316 -0.468257 1.0383 246 242 130 0.822514 57 2238 56 1938 54 2173 55 1877
2611 3.8099 0.465356 1.11333 251 237 78 0.186203 78 2132 79 2223
2022 4.33012 -0.590772 1.12182 76 76 31 0.961473 74 1346 73 1929 72 1964
3531 5.5008 0.551095 1.30023 32 39 22 0.164588 81 1517 82 1022 83 526
13271 -3.0165 0.694017 3.08358 23 30 14 0.481152 18 766 20 425 19 409 17 496 16 587 15 925 13 1015 14 1105
2023 4.22731 -0.672408 1.42945 1 0 2 1.06283 74 2211 73 1931 76 1994
6687 6.64122 -0.396391 2.04234 84 101 49 0.513471 90 680 91 271 92 389
8419 1.86104 0.048275 1.31129 34 49 26 0.412934 62 424 61 374
13335 -2.85862 0.795231 2.2111 39 52 18 1.37378 18 830 20 1076 19 938 17 1269 13 654
4380 3.23908 -0.0507455 1.23949 40 50 13 0.87412 74 1601 71 1355 69 1199 68 1293 67 1113 64 1301 65 982 63 1208
13277 -2.03739 -0.73304 2.34455 137 129 90 0.623847 18 265 20 500 19 463 17 295
2029 3.4013 -0.0283571 1.23209 34 46 24 0.724605 74 2258 73 1986
2030 4.54332 0.543161 1.12287 44 60 31 0.803319 74 2297 75 2058 73 2030
8871 2.04057 -0.343485 0.874323 253 254 151 0.266291 60 1834 59 2057 58 2373 57 2246
15093 -5.42342 1.12433 1.95777 200 161 48 0.298123 7 1973 6 1837 5 1838 4 1837 94 1808 99 1603 3 1821 100 2033 95 1836
2034 3.30423 0.766774 0.909821 65 81 30 1.28219 74 2395 73 2054 72 2081 69 1940 70 2076
5976 6.26373 0.519709 1.33289 0 1 0 1.06048 86 2160 87 2158 88 2038 89 1943 90 1781
12739 -2.34673 -0.0206658 1.31115 255 228 69 0.550823 25 683 24 822 23 972 22 1094 21 1026
3425 3.96621 -0.233754 1.26642 0 0 0 2.00216 73 2475 78 2502 77 2436
6304 5.55409 0.461484 1.24 0 0 0 1.57381 87 2155 88 2035
11774 0.246909 1.19208 2.61219 14 19 12 0.0572438 36 848 35 1084
2036 4.32916 -0.411767 1.18606 147 117 44 0.289475 74 2340 73 2069 72 2175
3138 4.91608 0.381848 1.15048 82 72 23 0.35183 80 1609 81 978 82 987 83 1399 84 1377 85 817
2239 3.49763 -0.158632 1.29382 44 53 34 0.453789 73 1279 72 1339 71 1302 70 1316
7946 2.38946 -0.280336 0.865371 102 126 75 0.673108 65 241 64 236
2040 3.64134 -0.261606 1.44043 254 212 69 1.08545 74 2354 73 2084 72 2115 71 1917 70 1992
2046 3.7862 -0.166408 1.6045 0 0 0 0.0639643 76 2022 73 2153
2047 3.43474 -0.00152218 1.18583 0 0 0 0.0534802 74 2368 73 2158
7610 3.44283 0.303999 0.971214 181 232 91 0.575254 75 1114 74 1187 73 900 72 976 71 981 71 982 70 961 69 489 68 957 67 825 66 650
4142 5.2108 0.085936 0.981072 159 193 96 0.242747 83 1285 84 1647 85 1539
2300 3.47484 0.105944 1.27969 56 54 28 0.0278335 73 1402 72 1823
2049 3.73836 0.349086 1.04091 23 26 19 0.739804 74 2544 73 2171 72 2221 71 2208
6010 5.30878 0.363878 1.12807 0 0 0 0.895767 86 2370 87 2371 88 2247 89 2123 90 2046
12352 -2.14856 -0.2358 1.34461 85 115 71 1.18338 31 1108 30 1144 29 1087
4149 5.22905 0.242851 1.07892 0 1 0 0.688235 83 1356 84 1677
11761 -1.47308 -0.27291 1.1454 69 94 44 1.0269 36 640 35 856 34 669 32 535 33 912
6257 5.46086 -0.251694 1.06307 1 0 0 0.584239 87 2030 88 1969
2053 3.76089 -0.192552 0.857937 0 1 0 0.690787 77 2292 73 2220
2054 3.96488 -0.184182 1.20816 0 1 0 1.31941 74 2504 73 2226 71 2170 70 2248
2062 4.28961 -0.411087 1.19196 0 0 0 1.09528 74 2595 73 2303 72 2353
2063 4.30545 -0.362276 1.00787 250 254 134 0.63802 74 2599 73 2304 72 2350
3640 5.00843 0.212721 1.02779 122 167 86 0.207539 81 1420 82 1829
2074 3.30578 0.686171 0.85805 0 1 0 0.33977 74 2782 73 2385 72 2440
2064 3.81594 -0.450912 1.51756 0 1 0 1.41753 74 2604 73 2308 72 2357 71 2264 70 2336 69 2010 68 2074
4676 3.32336 0.355877 0.921182 81 109 52 0.30062 71 1481 70 1493 69 1336 68 1447 66 1063
3700 5.21006 0.487582 1.11075 41 49 21 0.497729 81 2171 82 2169 83 2058 84 2029 85 1930 88 1941 89 1858 90 1785
2068 3.5939 -0.271435 1.38806 0 1 0 1.46796 74 2621 73 2321 72 2374 70 2355 69 2146
15467 0.80986 0.0932173 1.09839 235 182 45 0.766681 48 1367 49 1536 50 1666 51 1686 54 1918
13386 -3.74142 0.781442 1.97424 0 0 0 0.636143 21 1047 19 1225
5044 2.58716 0.0237433 2.27707 30 36 22 0.115727 70 2464 71 2379 69 2241
2069 3.44953 -0.14847 1.27625 0 0 1 0.919349 74 2632 73 2328 70 2363
3157 4.47775 -0.574002 1.05433 42 50 35 0.723499 80 1205 81 1107 82 1111 83 1048
6232 5.03044 0.989984 1.13947 3 1 1 0.440007 87 1823 88 1697
2602 4.97817 0.234517 1.06881 249 182 57 0.760288 78 2118 79 2129 80 2133 81 1818
2072 3.56845 0.73638 0.93786 0 0 0 0.719993 74 2780 73 2381 72 2439
3290 4.06567 -0.107727 1.23545 34 33 19 0.365872 80 1891 81 1975 82 1736
2083 4.22147 -0.361862 1.26738 0 0 0 0.279075 74 2799 73 2472 72 2529
15400 0.607157 0.454302 1.25567 29 36 18 0.618452 48 764 49 418
3358 4.92293 0.914747 1.13671 255 247 70 0.29938 80 2635 81 2407
2085 3.28718 0.360329 0.925295 1 0 0 0.77535 74 2830 73 2482 72 2543
2221 3.79493 -0.497524 1.50559 47 57 41 0.609513 73 1661 72 1190 71 1160 70 1155
5600 5.01402 -0.440333 0.98216 31 40 25 1.19376 85 974 86 304 87 327
14696 -3.91157 0.67994 1.59808 0 1 3 1.27424 12 1882 10 2000 9 1948 14 2200 16 2016
2096 3.56147 -0.015925 1.44542 30 36 26 1.4967 74 545 73 825 72 882
8813 2.1815 -0.699583 0.965744 0 0 0 1.5029 60 1492 59 1620
14991 -5.3521 -0.11732 2.01841 50 49 19 0.790757 8 1687 7 2016 6 1865
2333 3.31389 0.424892 0.935572 34 35 19 0.550108 73 2028 72 2052
2101 4.3124 -0.419375 1.17294 18 24 9 1.82891 74 1932 73 1660 72 1682
2107 4.65368 -0.187757 1.36189 30 39 19 1.86032 77 423 73 2090
2108 4.51301 0.0511991 1.15594 0 1 0 0.956108 77 2027 73 2103
5440 5.21821 -0.479043 0.980237 122 171 80 0.330315 85 955 86 1106 87 1118
14087 -3.9925 -0.620428 1.91803 110 127 121 1.36452 15 625 13 312 14 8
12423 -2.11186 0.736716 1.16762 126 114 36 0.740771 30 733 29 1049 28 1098 27 854 26 975
2110 2.22227 1.56468 4.72638 1 0 1 1.11588 75 2283 73 2173
2113 3.90775 -0.31463 1.30835 0 0 5 1.51098 74 2418 73 2216 72 2250 71 2279 70 2350
7068 5.69192 0.799912 1.51913 75 105 40 1.17725 85 181 87 644 89 945 90 1312 84 1441 88 1382 91 1370
4005 4.58357 -0.907528 1.34518 73 106 74 1.23678 82 3 84 221
4115 5.57942 0.235858 1.2272 43 66 28 0.12442 83 1340 84 1319 85 1196
2119 3.27911 0.787873 0.928419 0 0 0 1.35824 74 2701 73 2388
6493 5.67228 -0.320412 1.53641 39 47 29 1.08968 86 737 90 344
16339 -5.17792 1.1639 2.38377 53 59 26 0.203727 94 669 99 934 95 1562
2134 4.31531 -0.633848 1.21798 0 1 0 2.17533 74 2401 73 2201 79 2314
2286 4.20553 -0.265825 1.24996 112 87 38 0.557992 73 1196 72 1727 71 1249
2139 3.9792 -0.568489 1.31343 97 119 54 0.729843 73 22 72 27 71 23 69 246
6495 6.02834 -0.207479 1.28358 98 109 43 0.255332 89 381 90 370 91 309 92 787
2540 4.77148 0.466477 1.15044 166 125 33 0.565922 78 1058 79 1600 80 1646 81 1508 82 1520 83 950 84 918 85 850 86 1015 87 1016
2140 3.48189 -0.297625 1.26383 72 88 41 0.0881497 73 90 72 84
10367 0.785292 0.292655 1.10419 40 47 27 0.367123 48 743 46 759 45 771 44 897
6042 5.7265 -0.17815 1.33427 0 0 0 1.46959 84 2312 87 2349 88 2215 89 2103
13808 -3.96346 0.393882 1.4968 41 63 14 0.412832 18 1118 16 1435 15 1380
2141 3.69977 -0.0949688 0.156458 42 59 37 2.75851 73 103 72 97
11037 0.110477 1.09691 1.8575 37 38 6 0.558086 45 824 43 826 42 624 41 770
2147 3.4693 0.387322 0.897117 80 94 38 0.457548 73 955 72 201
14062 -3.05299 0.300153 2.06171 31 36 13 1.40051 16 967 15 1290 13 979 12 1184 14 1065
2149 3.9026 -0.833249 1.53985 114 145 115 0.641619 75 22 72 250
5543 5.39369 0.223124 1.14954 103 153 67 0.342096 85 1751 86 1884
2150 4.31265 -0.55394 1.06888 65 88 44 0.554806 73 1058 72 254
10074 0.784466 0.0857351 1.136 54 49 19 0.124426 48 1056 47 1141 49 1363
5072 3.60359 -0.207587 1.44897 63 77 52 1.12812 72 802 69 1142
3616 4.5024 -0.675819 1.06159 68 88 51 0.195229 80 689 82 1606
2152 3.98116 -0.559723 1.31704 41 56 38 0.416364 73 258 72 267 71 25 70 15 69 18
5879 5.70985 -0.0995483 1.31321 207 151 44 0.622277 86 1651 87 1665 88 1722 91 1528 92 1699 93 1513
7495 6.73054 0.549824 1.09438 90 107 42 0.284609 91 765 92 947
3906 4.57936 -0.778782 1.17848 80 78 41 1.14662 82 1927 83 1916 84 1770
2588 4.14426 0.588071 0.896949 145 203 93 0.504624 78 1634 79 2017
2156 3.31251 -0.286718 1.31772 52 71 23 0.338831 73 699 72 345
2157 3.6566 -0.253458 1.45252 51 63 39 0.359876 73 351 72 364 71 816 70 770
10610 0.522914 -0.178221 1.04403 80 74 17 0.141722 46 269 45 255 44 335
2159 3.94951 -0.183118 1.20326 53 68 43 0.345276 73 372 72 381
5383 5.89384 -0.00896973 1.38355 86 110 51 0.271511 85 312 86 427 87 138 88 118
13410 -2.94353 0.461979 1.97847 50 56 33 0.70917 18 1676 19 1340 17 1853 16 2094 15 2153
9984 0.133468 1.0731 1.56008 99 116 76 0.319684 48 442 47 543 49 457 50 510
8826 1.44523 0.705779 0.83809 214 253 115 0.785312 60 1476 59 1721 58 1864 57 2081 56 1776
3685 4.73488 0.314152 1.06278 134 193 86 1.29535 81 2017 82 2093 83 1967
3124 5.33117 0.0870582 0.993557 56 76 46 0.716833 80 981 81 893 82 891
2160 4.09107 -0.140185 1.17988 62 79 38 0.410587 73 381 72 388 71 454 70 107
7277 3.40493 0.697008 0.838498 1 2 0 0.780474 69 2116 67 1890 66 1679
2161 4.34346 -0.0957894 1.2151 30 38 28 0.313799 73 1316 72 405
5509 5.70958 -0.0996968 1.31445 204 147 44 1.03963 85 1485 86 1650 84 1185 87 1664 88 1721 91 1527 90 1754 92 1698
12966 -3.05165 0.366696 2.11624 39 44 21 0.26111 22 615 21 320
7644 6.58599 -0.399765 2.14408 248 253 234 0.585771 90 1069 93 1032 91 543
13605 -2.73909 0.34967 1.88877 143 120 42 0.597041 18 1279 17 1446 16 1680 15 1666
9405 1.39929 0.430396 0.798131 78 102 50 0.626453 54 1317 53 222
2163 3.29516 -0.0786031 1.22012 70 86 47 0.266678 73 133 72 414 68 173
12263 -1.34912 0.00548512 1.40864 117 93 33 0.493646 32 1653 31 1575 30 1653
2165 3.05978 -0.00153147 1.35483 84 114 54 0.0874452 73 837 72 433
2181 3.91012 -0.541669 1.34012 78 87 56 0.566641 73 1084 72 636 71 1139 70 1132
2166 2.595 0.02465 2.28552 68 62 28 0.755591 73 426 72 434 71 517
11638 -1.24293 -0.0713501 1.0445 44 58 24 0.308985 38 966 37 1051
8320 2.54073 0.419798 1.35022 137 105 32 0.278322 63 1009 62 1225 60 1160 61 1079
14646 -4.60277 0.152207 1.51195 0 1 3 0.460017 12 1484 10 1608
4481 4.02238 0.820138 1.08862 0 1 0 1.04891 72 2434 71 2347 70 2307
11983 -0.983094 0.454818 1.08898 250 239 70 0.339365 34 1392 33 1640
2167 3.07719 0.00889987 1.39357 37 45 25 0.0491727 73 142 72 435
5290 5.01811 -0.243861 1.00091 166 172 73 0.834188 84 2261 85 2055 86 2198
2168 3.11293 0.0872469 1.45433 28 39 25 0.595692 73 438 72 451 71 522
14683 -4.24269 -0.511193 1.90933 0 2 0 0.257861 11 1957 10 1896
9792 0.800894 -0.341338 1.10315 42 47 30 0.378462 53 1508 52 1372 50 1368 51 1284
2169 4.20124 0.107585 1.31054 17 29 5 0.202959 73 441 72 456 70 144
2171 4.26829 0.118273 1.25329 59 77 39 0.138184 73 871 72 461 71 945 70 917
2643 4.56555 -0.661765 1.05811 0 0 0 0.209767 78 2540 81 2535
2172 3.65579 0.217403 0.869691 110 160 64 0.177872 73 452 72 478
2246 3.89547 -0.0342849 1.31655 52 68 32 1.63027 73 1341 72 1390 71 1742 70 1380
2174 3.98993 0.381122 1.0615 56 79 31 0.670881 73 922 72 513 71 590
15830 -0.604586 1.34709 3.85923 81 85 50 0.00825173 50 842 51 726
2175 3.31968 0.407496 0.924638 62 79 34 0.356736 73 499 72 537 71 240
12205 -1.46194 0.550301 1.15253 37 49 21 0.168328 32 1118 31 1027 30 1063 29 1016
6689 5.78635 -0.204337 1.3232 41 55 30 0.607633 87 430 91 312 92 799
4250 4.8064 0.431948 1.12497 0 0 0 1.23084 83 1427 84 1713
2176 3.99661 0.558651 0.933512 58 82 31 0.265475 73 1005 72 567 71 270 70 236
2177 4.03543 0.63295 1.00409 42 37 16 1.35384 73 534 72 571 71 1072 70 599
5867 5.40067 -0.549761 0.999702 246 246 132 0.806295 86 1571 87 1582 88 1458 89 1416
5940 5.87442 -0.00401717 1.3648 255 255 78 0.284686 86 1949 87 1963 88 1913 89 1829
4151 4.96543 0.274314 1.11329 253 227 62 0.167961 83 1883 84 1682 85 1598
2178 3.29745 0.594975 0.814394 104 144 57 0.859945 73 543 72 579
2180 4.04501 -1.03905 1.66319 237 254 244 0.231034 73 234 72 610
9721 0.739077 0.198156 1.10163 59 67 28 0.223043 53 847 52 735 51 1112
5419 6.08966 0.280596 1.94207 41 40 14 1.18598 85 1171 86 893 87 904 88 807 89 1250 88 1237 90 1194 91 1025 92 1208 93 1149
2182 3.51985 -0.413652 1.25361 96 126 62 1.60791 75 1864 72 666 71 1168 70 1161
6192 4.99128 0.951067 1.19795 60 64 13 0.540139 87 1566 88 1435
6876 3.76348 -0.653204 1.79168 242 245 130 0.000873121 69 1483 68 1071
14015 -3.90097 0.0923658 1.78477 115 159 72 0.24107 16 1323 15 1616
8474 1.83717 -0.350047 0.914514 46 59 33 0.608199 62 1342 61 1182 60 903 59 968 58 695
4368 2.47204 -0.505341 2.25828 237 201 81 0.530998 72 722 71 1232 70 1227
14080 -4.01086 -0.213721 1.31828 76 95 49 0.953562 15 1101 13 39
2842 4.29974 -0.165492 1.13892 54 58 29 0.105559 79 1831 80 1872 81 1277
14774 -4.41278 0.708391 1.59806 15 24 11 1.21855 10 1095 9 979 8 1344 7 1527 6 1329
2184 4.14738 -0.334169 1.32973 34 43 26 0.371205 73 1171 72 711
2185 3.1185 -0.336482 1.31289 94 124 65 0.0782973 73 675 72 715
3509 4.30396 -0.176098 1.14278 68 96 48 0.218267 81 1272 82 792
2189 4.29143 -0.188872 1.16404 42 54 34 0.707052 73 364 76 1263 72 792 71 840
2190 4.30423 -0.184001 1.19737 32 40 16 0.0581025 73 1247 72 798
3218 4.5407 0.622077 1.1885 33 38 22 0.686806 80 2015 81 1551 82 1549
2191 3.87448 -0.184809 1.23233 48 61 32 0.114694 73 753 72 801 71 843 70 802
11993 -1.35753 0.495483 1.22898 84 96 57 0.903479 33 808 32 1315
7369 3.21186 0.515182 1.00798 53 64 32 0.304664 67 888 66 1111 65 1166 64 1169
15454 1.1304 0.104156 1.12495 36 49 21 0.777532 48 1370 49 1368 50 1492
2192 3.44301 -0.115869 1.26918 55 75 40 0.287334 73 1301 72 838 71 871 70 835 69 733 68 818
9863 1.33061 -0.463126 1.01634 249 255 200 0.409036 53 2210 52 2056 50 1899
5271 5.88028 0.553792 1.7827 1 0 3 1.30363 83 2049 85 1918 86 2059 88 2031 89 1936 90 1844 91 1659 92 1802
3111 4.2857 -0.162725 1.15464 252 244 94 0.381703 80 904 81 802 82 799 83 334
11613 0.207734 1.21535 2.61632 36 36 12 0.682638 38 399 37 432 36 326 35 777
8090 2.38927 -0.538748 1.35828 240 254 222 0.606891 67 1361 64 1435
2785 4.5802 -0.134999 1.04036 29 37 16 0.555242 79 1835 80 1429 81 1288 83 1196 84 1172
2193 3.28923 -0.114463 1.22307 169 151 54 0.745929 73 790 72 840 71 868 70 1331 69 1171 67 1093
10951 0.242055 0.956758 0.876325 252 249 89 0.736417 45 1525 44 1615 46 1636 43 1385
2194 3.33166 -0.109448 1.23164 0 1 0 0.488413 73 1307 72 842 71 477
6324 6.63441 0.0102841 4.17348 81 116 56 0.362834 87 468 88 114 89 118
8071 2.67195 0.306472 1.48641 29 35 13 0.645202 65 1070 64 1353 63 984 62 1198 60 1399 59 1512 57 1355
2195 3.84289 -0.0501581 1.26788 31 43 22 1.54418 73 408 72 869 71 905 70 876 69 415 68 520 67 379
15435 0.42157 -0.0833403 1.07329 26 34 21 0.767087 48 993 49 989
2197 2.57328 0.0117814 2.2703 17 27 16 0.585062 73 1357 72 890 71 914 70 890
15933 0.893271 -0.335201 1.07082 0 0 0 2.06075 50 1997 51 1867
6992 3.18639 0.43639 1.01128 244 253 96 0.177088 69 2095 70 2212 68 2159
2200 3.06742 0.0181521 1.34225 106 131 71 0.31905 73 845 72 899
2201 4.27818 0.0557334 1.23005 45 55 34 1.08639 73 1777 72 903
5356 5.22292 0.247785 1.05842 0 0 0 1.56244 79 2485 80 2499 81 2369 82 2363 83 2323
2202 4.27361 0.104482 1.24458 15 25 13 0.839736 73 1398 72 917 71 532
12176 -1.67892 -0.0435212 1.19156 74 90 43 1.06502 32 625 31 599 30 537
10395 0.557223 -0.318489 1.07529 165 138 47 0.14033 47 1565 46 901 45 908
7335 3.30035 0.33245 0.913511 82 92 26 0.456051 67 464 66 673 65 759 64 423
8020 3.2705 0.0513745 1.27345 25 22 13 1.22768 65 1010 64 1029 63 924
9276 1.18899 0.167193 0.839197 117 157 66 1.22711 55 1141 54 1221 53 1309 52 1189 51 1120 50 1195
2302 2.84611 0.24983 1.53003 25 37 19 1.80252 73 1795 72 1830 71 1418 70 1423 69 820 68 211
7637 7.17724 -0.536799 1.38482 65 70 44 1.21608 92 1004 93 961
5406 5.59457 -0.120913 1.16108 93 114 57 1.74788 85 638 86 795 87 1240 88 715 89 393
2203 2.82316 0.26072 1.54481 27 35 19 0.464218 73 881 72 935 71 957 70 504
5704 5.55777 1.00868 1.29117 240 217 83 0.64304 85 193 87 666 90 259
10495 0.614361 0.503451 1.27564 255 226 62 1.04957 47 1693 46 1704 45 1720 43 1526 49 1630 50 1693 48 1628 51 1454
4305 2.47238 -0.160584 2.12392 35 34 20 0.474558 72 406 71 474 70 416 69 724
2736 3.98877 -0.612149 1.34022 94 97 52 0.38516 79 708 80 741 81 1125
2204 3.6137 0.262599 0.870421 118 155 45 0.41985 73 468 72 971 71 980 70 958 69 864
3926 5.3016 0.48669 1.14071 0 0 4 0.306601 81 2101 83 2056
2209 3.95571 0.485564 0.946264 22 34 17 0.012598 73 523 72 1042
5408 5.23889 -0.0593007 0.949764 52 57 29 0.303182 85 654 86 804
2210 3.34797 0.513155 0.817283 132 149 56 0.508254 73 1551 72 1063 71 1544 70 1564
9190 2.06525 -0.186346 0.981768 255 255 78 0.109154 57 2147 56 1843
8187 2.54652 0.427378 1.34833 34 34 6 0.108078 64 415 63 361 62 503
2212 3.39374 0.591111 0.821925 89 115 59 0.297096 73 1017 72 1072 71 1084
4467 3.90855 -0.430959 1.43144 0 0 0 0.716497 72 2359 71 2266 70 2441
4152 5.00908 0.283833 1.0525 57 79 33 0.444899 83 1380 84 1690 85 1603
6982 3.29115 -0.322975 1.29185 2 0 0 1.18235 69 2140 70 2230 68 2086 67 1812
13220 -3.4678 0.0076071 2.30684 0 0 1 0.190134 20 1334 18 1657 19 1317 17 1832
2213 4.08193 0.767576 1.04301 110 138 51 0.45754 73 1576 72 1075
4251 4.73398 0.507089 1.1092 46 65 26 0.0649152 84 1732 85 1780
2214 3.33333 0.617875 0.833686 48 68 19 0.622268 73 1026 72 1076 71 1088 70 1074 69 1431 68 1030
11878 -1.85124 -0.419594 1.63659 75 78 31 0.437182 35 1345 34 1190 32 1371
9417 0.811114 0.220225 1.11787 66 74 16 0.0126556 54 351 53 480
3200 4.98733 0.272026 1.07103 57 76 41 0.0370725 80 1581 81 1437
3128 5.12355 0.154349 0.998575 46 61 21 0.34393 80 1542 81 908 82 460
3366 4.45959 -0.196172 1.04794 0 1 0 2.18585 80 2596 81 2435 82 2333 83 2211
2215 3.43715 0.636322 0.851732 51 68 33 0.804158 73 1583 72 1079
5844 4.98034 0.381905 1.09505 66 90 42 0.0970695 86 1441 87 1447 88 1327
14049 -4.13312 1.08571 1.63984 250 243 61 1.00281 16 2194 15 2255 13 2223 12 2002 11 2158 10 2100 17 1887 9 2028 7 2262 8 1844 6 2101 14 2294
