# 3D point list with one line of data per point:
#   POINT3D_ID, X, Y, Z, R, G, B, ERROR, TRACK[] as (IMAGE_ID, POINT2D_IDX)
# Number of points: 573, mean track length: 3.68545
442 -0.90944 -0.249038 0.463723 207 213 89 0.0769616 74 1371 75 1308
6805 0.0524066 0.3573 0.509401 49 71 29 0.507177 89 576 90 965 92 1350 91 1161
24129 4.92214 0.457387 0.998564 130 147 50 0.828368 169 2061 170 1835 171 2046
556 -0.866687 0.122181 0.488377 58 72 34 1.68584 78 1856 75 1641 76 1415 77 1779 79 1919 80 1961 81 1825
443 -0.962649 -0.240132 0.452322 44 53 30 0.375217 74 1373 75 1312 76 1123
1684 -1.19417 0.37852 0.460002 255 216 53 0.401228 73 2189 72 2231 71 2134 70 2216 69 1997
30982 -4.72194 0.0524006 1.21957 0 2 0 0.0322655 19 1201 18 1444
525 -1.46645 -0.0147854 0.531376 59 80 41 0.103014 74 2041 75 1574
11927 0.905968 -0.229758 0.613159 90 100 62 1.25421 108 243 109 427 111 773 112 881
31930 -5.41345 -0.0193844 0.739941 0 0 0 0.847354 6 1985 4 2118
445 -0.940007 -0.221497 0.45788 0 0 4 0.576835 74 1389 75 1332
1064 -1.5001 0.30025 0.331568 34 49 16 0.917163 74 2321 75 2223 73 2047 72 1934 71 1587
9502 0.00753783 0.188407 0.548199 67 96 50 0.833609 97 180 98 265
25667 5.39886 0.359862 1.06159 29 21 8 1.72344 175 1745 176 1596 179 1372 180 1302
14311 -2.39883 -0.111547 0.378247 49 83 42 0.118085 60 67 59 56
28322 -3.80278 -0.0102602 0.571674 0 0 0 1.24819 34 1262 33 1533
26119 5.32113 0.0628037 1.11512 192 145 46 0.392039 175 2123 178 1518
450 -1.00205 -0.190348 0.429152 41 48 38 0.211553 74 1404 75 1344 76 1162
18885 2.22525 -0.061657 0.597795 245 208 54 0.622961 131 891 132 1004
3572 -0.883324 -0.018192 0.475654 56 76 34 0.465643 79 173 80 951 81 441 82 855
501 -1.24302 -0.0581154 0.527728 45 40 16 0.4073 74 1571 75 1519 73 1304 72 1774 76 1326 71 1322 70 1338
452 -1.21946 -0.229496 0.591319 55 56 40 1.0927 74 1406 78 1246 75 1350 73 1114 76 1165 77 1211 70 1154 69 1486 68 1575
15648 2.03681 -0.0430537 0.438512 76 101 41 0.149004 126 797 127 738 128 777
22625 4.61637 0.0448148 0.926458 0 0 0 1.07124 160 1552 161 1729 162 1870 164 2062
4188 -1.06465 -0.202495 0.463507 0 1 0 2.27169 80 2670 81 2496 82 2419
3374 -1.77773 0.202438 0.641617 23 32 13 0.420824 70 1462 69 1301 68 1414 67 1223 66 639 65 1096 64 1113
5949 -0.558042 0.212999 0.509624 31 43 14 1.19171 86 1984 87 2000 88 1868 89 1724
714 -1.23373 -0.3996 0.683151 244 253 246 1.6683 78 1149 75 2126 73 2060 72 2087 76 1088 77 1126
11458 0.782669 -0.141886 0.684837 183 210 95 1.46932 104 1233 106 1284
8571 0.362709 0.223573 0.489769 252 255 85 0.77867 92 1727 93 1609 94 1596 95 1596 96 1606 97 1427 98 1878 99 1785 100 1738 99 1725 101 1624 102 1559 103 1296
453 -1.40069 -0.199057 0.521841 92 115 75 1.52238 74 1414 75 1361 73 635 72 1202 76 1185 77 1228 71 718 70 687
3556 -1.13079 0.30131 0.385807 130 182 72 1.08842 78 1117 79 639 80 658
1091 -1.51054 0.342565 0.359086 254 255 95 0.634899 74 2567 75 2482 73 2282 72 2326 71 2234 70 2311 68 2258 67 1976
12140 1.06451 0.021055 0.780376 247 255 77 0.554504 109 1305 110 1443 111 1340 113 1404 112 1477 114 1311 115 1385 116 1567 117 1532
8928 0.33498 -0.0883628 0.587955 48 59 42 0.350481 94 352 95 614
7311 -1.76129 0.251749 0.645746 1 0 0 0.694016 68 2150 67 1866 66 1659 65 1696
503 -1.52532 -0.0580786 0.533955 171 153 51 0.169677 74 1569 75 1523 73 1313 72 1778
19462 3.11227 0.180946 0.982974 0 0 0 1.46285 135 1170 136 1298 137 1302 142 1261
5870 -0.483367 -0.126489 0.449146 63 74 32 0.247875 86 1606 87 1630 88 1511
700 -1.53676 0.211582 0.398264 44 41 17 0.0390986 74 1767 75 2052
1398 -1.51745 0.324212 0.349694 0 1 0 0.367205 74 2782 73 2385 72 2440
23740 4.92307 0.439941 0.992401 37 40 19 0.949658 167 1972 168 1929 169 1907 170 1772 171 1897 172 1791 174 1749
6768 -0.51345 0.348283 0.656216 33 42 21 0.643128 87 1047 90 544
8972 0.399327 -0.0642883 0.520203 53 62 33 0.725943 94 1273 95 979 96 973 97 1162 98 1226 99 1162 100 1178
454 -1.27996 -0.231343 0.666317 55 72 49 0.740577 74 1422 78 340 75 1364 76 1182 77 1226 71 1176 70 1172
10903 0.901415 0.0636914 0.476837 36 40 25 0.49368 103 1185 104 1397 105 1206 106 1086 110 1050 111 943
24777 4.84285 -0.301266 1.11212 97 96 50 0.15351 170 1317 172 1682
4694 -0.581551 0.187966 0.494764 57 74 40 0.804267 82 1864 83 1409 84 1710 85 1623
32790 -5.75772 -0.282558 0.766795 60 64 45 0.0308159 6 939 5 1573
1010 -1.51252 0.260267 0.342419 64 69 25 1.4505 74 1820 75 1749 71 1554 70 1573 69 1418 68 1516 67 1311 66 722
24032 5.09805 0.102855 0.941945 234 210 73 0.963326 168 825 169 750 170 1048 171 1164
455 -1.03627 -0.193341 0.523696 34 45 29 0.305825 74 895 75 1369
550 -0.931544 0.047317 0.50128 28 32 15 0.60722 74 1678 75 1629 73 1406 76 1398
3611 -0.743118 -0.296638 0.722188 0 1 1 0.00100431 79 2257 80 1287
2774 -1.27466 0.24228 0.509234 120 103 33 0.168067 72 1020 71 1041
1646 -1.48181 0.318559 0.339132 52 69 27 1.27909 73 1913 72 1943 71 1858 70 1939 69 1735 70 1631
16877 -2.59382 0.0524447 0.0282546 49 64 29 1.82228 54 422 52 167
6100 -0.541504 -0.0362212 0.49691 125 107 42 1.31012 87 454 88 370 90 114
18154 -2.86461 -0.164803 0.434672 43 59 25 0.350377 46 904 45 911
8739 0.369944 0.300388 0.537572 31 43 8 0.779343 93 1374 94 1164 95 1168 96 1399 97 1276 98 1725 99 1635 100 1644 101 1647
456 -1.16289 -0.194282 0.531864 39 41 28 1.37438 74 1427 75 1371 76 1193 77 1229 78 1271
16021 -2.60926 -0.265937 0.643946 48 65 33 1.35183 56 274 55 921
32294 -5.77315 0.134957 0.722671 0 1 0 0.573151 4 1433 200 1984
25735 5.36416 0.282271 1.02071 0 0 0 1.83983 175 2146 176 1903 177 1931
12550 -1.60589 0.306275 0.525807 0 1 0 0.230337 63 1652 62 1770
6764 -0.187537 0.206934 0.940468 55 50 12 0.0365494 89 491 90 463
458 -1.14728 -0.191564 0.535058 35 34 21 1.79495 75 1377 77 761 78 1272 79 1315 73 1135
9339 -0.516368 -0.0608073 2.66119 0 0 5 0.745774 92 1153 97 915
26461 5.63597 0.163166 1.48957 42 54 24 0.506829 179 1140 180 1210 181 1511 182 1173 183 1167 184 1329 185 1327 186 1358 187 1376
23235 4.70344 0.378417 1.061 200 144 34 0.189429 164 1746 165 1824 166 1724 163 1579
459 -1.37858 -0.18637 0.516982 56 73 42 0.253257 74 1432 75 1378 76 1196 77 1236
15922 -2.38344 0.235857 0.381378 0 1 0 1.04137 57 2295 56 1934
8226 0.0216628 0.171742 0.889036 90 85 41 0.305856 91 1740 92 1897
33011 -5.70906 -0.253015 0.801568 0 1 0 0.313853 199 1836 195 2085
8340 0.174595 0.0115537 0.928664 34 32 24 0.442715 92 834 93 769 94 716
474 -0.89697 -0.126338 0.42891 39 46 17 0.286494 78 1301 75 1430 76 1624 77 1264 79 1352 80 1373 81 1231 82 1235
5394 0.00686037 -0.225269 1.00117 75 96 61 0.559076 85 595 86 725 87 745
9390 0.086948 -0.23868 1.0538 251 255 141 0.347235 96 1518 97 1325 98 1559 99 1490 100 1132
14434 -2.04598 0.46331 0.38759 117 111 53 0.16439 60 1489 59 1615 58 2025
20101 2.90925 -0.171489 0.990233 255 255 238 0.694758 140 999 141 904
18289 -3.21748 -0.00646583 0.550281 0 1 0 1.64981 46 1886 45 1889 42 1348
1396 -1.3909 0.350005 0.392533 0 0 0 0.6879 74 2780 73 2381 72 2439
706 -1.24491 0.28693 0.465253 29 35 16 1.26336 78 1613 75 2073 73 529 74 730 72 1571 76 1509 77 1557 79 1660 71 1538
13608 1.32501 -0.0318953 0.537836 90 118 57 1.2299 114 322 116 1347
19096 2.95681 -0.128148 0.941408 255 255 98 0.382598 133 1049 134 1007 135 960 136 1053 137 1065 138 1017 139 1041
18706 -3.24805 -0.221155 0.639363 0 1 0 0.183745 43 1543 42 1177
9450 0.0523786 0.206424 0.587978 65 73 32 1.21939 95 433 97 701
6529 -1.51894 -0.118676 0.546083 127 115 57 0.423574 69 339 68 438 67 327 65 60
3544 -0.817043 0.112721 0.533436 29 33 10 0.392875 79 206 80 554 81 190 82 477 83 430
1201 -1.39673 -0.0130953 0.6401 30 36 26 1.47144 74 545 73 825 72 882
542 -1.41961 0.0350443 0.562862 41 51 19 0.129575 74 2059 75 1610 73 1992
467 -0.915306 -0.139396 0.427391 46 45 22 0.367864 74 1463 75 1409 76 1218 77 784
630 -0.962689 -0.106674 0.453384 2 2 1 0.47262 74 1974 75 1907 76 1636
2425 -0.795823 0.231073 0.510247 25 28 7 0.632202 78 208 79 249 80 1094 81 1012 82 1023 83 955 84 924 85 855 86 1479 87 1486
12063 0.787024 0.222249 0.493495 54 56 23 1.43212 108 1319 109 990
3203 -1.38209 0.434384 0.443844 64 70 39 1.29941 72 1953 70 2079
470 -1.07641 -0.148725 0.52513 37 36 23 0.284546 74 1472 75 1422 73 1693 72 1716 71 1242 70 1257
22711 4.6928 0.0899922 0.919183 42 55 26 0.70499 161 883 162 970 163 669 164 695
580 -1.31875 0.254229 0.442152 71 114 40 0.664987 74 1259 75 1718
17554 -2.83097 -0.287602 0.450904 52 58 30 0.798898 49 822 48 1223 45 854 46 1264
16491 -2.74559 0.084185 0.446541 39 52 22 0.217497 54 1610 53 1660 52 1505
2685 -1.14267 -0.0571707 0.560063 0 1 0 1.41135 78 2359 79 2463 80 2466 81 2242 81 2337 82 2340
1665 -1.13061 0.363809 0.436402 0 0 0 0.356893 73 2043 72 2074
5694 -0.400947 0.124389 0.548948 38 51 25 0.212838 86 531 87 557 88 476 89 493 90 469
4398 -0.68039 0.0570001 0.47041 25 35 13 0.3428 81 1383 82 1403 83 1297 84 1654
471 -1.37291 -0.173689 0.672212 47 71 37 0.961492 74 1469 75 1423 72 734
4793 -0.938357 -0.0690232 0.418377 37 39 18 1.60608 82 1718 83 1610
10482 0.441039 0.245875 0.455989 142 200 73 0.420198 100 1033 102 985 103 915 104 317
8238 -0.347909 0.29442 0.769879 0 1 0 1.33272 84 2024 88 1938 89 1942 90 1847 95 1660 96 1660
10377 0.465603 0.260198 0.466509 1 3 2 0.901882 100 2029 101 1939 102 1813
531 -0.890581 -0.00711768 0.481334 39 36 2 0.633807 74 1633 75 1583 76 1370 78 1817 77 1393
13061 1.0473 0.150826 0.783891 255 210 62 0.384927 112 1423 114 1325 115 1391
7613 -1.54617 0.0763123 0.581186 25 34 7 0.32995 66 979 65 1042 64 1054 63 951
1016 -1.22267 0.351261 0.456876 21 32 16 1.03584 74 1826 75 1763 73 1885 72 1908 71 1839 70 1591
3577 -0.600982 0.033964 0.433159 89 102 48 0.445528 79 954 80 976 81 1374 82 1388
475 -1.22494 -0.145215 0.558697 77 109 49 0.5354 74 1480 75 1433 73 1190 72 1267
4435 -0.601917 -0.148122 0.379092 184 238 101 0.413043 81 1952 82 1667 83 1129
32033 -5.64264 -0.308604 0.961378 0 0 0 1.20004 4 1966 3 2013 5 1991 6 1848
29037 -4.2305 0.0744943 0.527902 27 38 24 1.14603 26 335 25 708
7835 -1.88564 0.196371 0.600067 36 44 21 0.65495 65 1099 64 753 62 843
7706 -1.61996 0.0850468 0.622514 237 176 49 0.632165 66 1648 67 1943 65 1751 64 1740 63 1633 62 1828
607 -1.02499 -0.214494 0.410837 62 72 34 0.681884 74 1915 75 1846 73 1639 76 1139 77 1653 78 1212 80 758
476 -1.20788 -0.137927 0.514174 47 62 38 0.299397 74 1481 75 1434 73 1191
477 -1.36204 -0.133941 0.629784 66 68 28 0.126662 74 974 75 1442 76 1242
642 -1.0454 -0.0746837 0.516159 77 57 21 0.467863 74 2002 75 1935 73 1731 72 2007 76 1305 77 1335 71 1927
1051 -1.4463 0.285416 0.330464 32 35 16 0.535277 74 2175 75 2094
13961 1.68047 -0.212633 0.640279 56 61 39 0.708104 118 774 119 767 120 1013
12124 0.72591 -0.168643 0.729309 47 59 29 0.0243879 109 781 110 1227
17934 -2.92369 0.0752415 0.496214 101 120 44 0.214105 47 1447 46 1433
479 -1.38629 -0.119432 0.566453 47 58 28 0.263824 74 1499 75 1447 76 1248
30027 4.70123 -0.166122 0.84022 52 64 38 0.134202 166 8 163 830
13071 1.60172 -0.0609846 0.717823 0 2 0 0.633848 112 1576 114 1398
4168 -0.796069 0.111809 0.565201 0 0 0 1.23547 80 2496 81 2366 84 2200
23361 4.6519 0.199546 0.961217 120 84 36 1.33729 164 175 166 160 163 416
1606 -1.0273 -0.228856 0.482079 33 43 26 0.580657 73 1642 72 1672
496 -1.52057 -0.0744217 0.524903 0 2 3 1.75857 74 2243 75 1502 73 2092
19802 2.74521 -0.264533 0.851162 68 76 47 0.991614 138 364 139 576 141 626 140 399
3870 -0.727787 -0.238026 0.50226 26 38 24 0.221307 80 767 81 316
5624 -0.709104 0.253098 0.516997 58 83 31 1.5745 85 2176 86 2313 87 2327 88 2229
10871 0.957151 0.24077 0.477492 135 176 71 0.269963 103 555 104 1098 105 1334 106 1194
481 -0.970174 -0.0965701 0.465109 26 32 20 0.984042 74 1514 75 1459 73 1715 76 1646 78 1336 77 1700 79 2074
7795 -1.62362 0.0806853 0.623459 51 51 25 0.213411 65 687 64 374 62 788 61 687
3524 -0.793295 0.236932 0.516753 61 65 33 0.160971 78 211 80 266 81 560 82 1025
25422 5.48113 0.49352 1.13523 37 41 14 0.657224 173 1975 174 1760 175 1622 176 1181 177 1219 178 1062 179 1283 180 1340 181 1460 182 1141
485 -0.949407 -0.0872595 0.433988 44 56 33 0.627454 74 1521 75 1473 76 1266 78 839 77 1290 79 864
25773 5.54059 0.0793284 1.04893 84 101 59 0.824198 176 890 177 585 178 509 179 528 181 645 180 51
10316 0.807466 0.229191 0.494505 43 52 25 0.728477 100 1387 101 1386 102 1354
786 -1.04765 -0.349023 0.67731 111 98 52 1.03909 74 2469 75 2313 73 2203
10225 0.371887 0.0925982 0.471193 234 220 87 0.320815 100 931 101 573 102 229
26791 5.53786 0.499184 1.18172 76 98 28 0.129581 179 1610 182 1461 183 1388 184 1599
978 -1.38335 -0.183114 0.586799 58 72 33 0.949597 74 1446 75 864
28734 -4.22239 -0.13456 0.557728 0 0 3 1.33885 29 1389 28 1214 31 1465 26 1035 25 932
4653 -0.353085 0.0317864 0.587544 40 49 24 0.62285 82 870 83 794 84 1245 85 1118 86 1281 87 1301 88 1563
29295 -4.54811 0.0907542 0.943213 140 100 28 0.388464 22 1274 21 1142 20 1354
487 -1.43347 -0.0938016 0.542902 105 104 39 0.295583 74 1524 75 1478 73 1255 72 1331
1499 -1.52703 -0.0624225 0.5268 169 151 54 0.702938 73 790 72 840 71 868 70 1331 69 1171 67 1093
4068 -0.639032 -0.032894 0.419444 18 22 11 1.1259 80 1899 81 1742 82 1747
9357 0.458043 0.263694 0.470383 50 64 22 1.03424 96 1395 97 1072 98 1467 99 1418 102 990 101 654 103 1325 104 1767 105 1354
488 -1.17261 -0.091149 0.540699 26 38 24 0.920407 74 1530 75 1481 73 1260 72 1327 76 1280 77 1314 79 877 70 805
1106 -1.02181 -0.184349 0.527354 0 1 0 1.48799 74 2797 75 2629 73 2403 72 2528 76 2286 77 2276
17813 -2.89588 -0.00929269 0.448481 31 42 17 0.975304 47 381 46 345 44 423
511 -1.24266 -0.0373168 0.546026 166 118 35 0.74049 74 1598 75 1545 72 861
1018 -1.39554 0.32047 0.384445 45 54 33 0.34627 74 1297 75 1773
13869 1.80419 0.192828 0.508208 70 109 42 0.635263 117 1396 118 1314 119 1313 120 1254 121 1238 122 1149
26105 5.54224 0.478333 1.17945 0 1 0 1.19441 175 852 178 1048 179 1023 180 1328 181 1223 182 1127 183 1123 184 1278
10705 0.449465 0.0368774 0.489312 36 52 7 0.710531 102 1509 103 1458 104 1669 105 1487
26425 5.5093 0.167374 1.07127 23 24 12 1.44114 178 557 180 936 181 1062
25505 5.43296 0.309533 1.08327 0 0 0 0.943232 174 2386 175 2197 176 2022
1825 -1.14597 -0.200524 0.493482 214 254 125 0.482256 75 831 76 1171 77 1213 78 1252 79 1293 80 1330
652 -0.873763 -0.0465531 0.471965 23 37 16 0.51994 78 1798 75 1955 77 1742 79 1854 81 1730 82 1738
27425 5.68622 0.380983 1.41904 0 1 0 0.347376 186 1546 187 1573
7996 -2.04986 0.470731 0.398767 152 137 68 0.117389 66 1850 64 1848
32492 -5.88984 0.0330443 0.783189 57 50 19 0.396525 200 1914 194 1877 195 1893
3732 -1.12454 -0.0626842 0.52626 20 21 13 1.08601 79 2089 80 2199 81 1974 82 1730
725 -1.28595 -0.119908 0.629138 254 246 98 0.635096 74 2239 75 2155 73 1963 72 2000 71 1921 70 1996
19707 3.27389 0.0958642 0.911187 228 183 56 0.306776 137 1015 138 941
494 -1.43086 -0.0764686 0.557183 56 74 32 0.743896 74 1547 75 1500 73 1734 72 1343 70 1320
15587 2.21369 0.0445915 0.584429 94 92 31 1.21329 125 1071 126 1159 127 1084
13137 1.39917 0.0339264 0.501647 122 154 43 0.341173 114 106 115 125 116 180
1099 -1.22377 0.269244 0.462835 35 55 30 1.34724 74 2686 75 2587 73 2453 70 2411
495 -1.23459 -0.0727265 0.524245 32 48 32 0.232044 74 1552 75 1501 73 1284
510 -1.25934 -0.0405537 0.549756 60 88 40 1.299 74 1594 75 1544 73 1329 76 1337
10065 0.191986 0.268419 0.564311 32 48 21 0.218282 99 1728 100 1626
497 -1.16468 -0.0664914 0.495451 42 56 20 0.168017 74 1558 75 1506 76 1314
24545 4.77321 -0.288157 1.05895 245 216 99 1.55713 170 2015 171 2142
777 -1.03789 0.0679733 0.564692 6 10 6 0.918278 74 2375 75 2280 76 1881
7533 -1.87356 -0.180955 1.09411 0 1 0 1.72 67 1997 66 1797 65 1798
1463 -1.51301 -0.0708919 0.514275 55 76 38 0.664565 73 122 72 395 71 455 70 402
23184 4.64041 0.204245 0.975786 19 21 8 0.402902 164 1512 165 1567 166 1551 167 1637
640 -1.05427 -0.0781172 0.516416 41 42 16 0.551304 74 1999 75 1932 78 874 73 1728 72 1762 76 1299 77 880
498 -1.11469 -0.0667416 0.542482 33 33 11 0.640602 74 1560 75 1511 73 1292 72 1347
23724 5.01463 0.45555 0.985071 29 42 13 0.543401 166 1637 167 1720 168 1433 169 1386
14301 -2.05206 -0.146106 0.330602 0 0 0 0.381038 60 1766 59 1910
14805 2.03734 -0.0438084 0.430762 172 206 86 0.350555 120 534 121 807 122 839 123 652 124 687
32710 -5.89077 0.0238048 0.775936 255 226 61 0.170546 199 1854 198 2246 195 2107
22143 4.42817 0.329801 1.00733 0 0 1 1.39539 157 820 158 1021 160 1138
5239 -0.820726 0.210538 0.500601 29 38 17 0.20867 84 1406 85 1635 86 1763
15243 1.63 0.423855 0.49939 0 0 0 1.1466 122 1486 123 1246
1502 -1.25882 -0.0299356 0.554894 31 43 22 1.55413 73 408 72 869 71 905 70 876 69 415 68 520 67 379
2489 -0.860592 -0.411352 0.540258 95 116 85 1.11152 78 1 79 1160 80 1172
499 -0.887847 -0.0608345 0.451043 39 32 14 0.579821 74 1562 75 1515 76 1677
16455 -2.70389 0.0631315 0.454057 14 17 8 0.350898 54 1180 53 1268 52 1147 51 1082
504 -1.15561 -0.0558078 0.528662 29 31 21 0.408006 74 1573 75 1524 73 1309 72 1359
16328 -2.69669 0.335857 0.491362 58 78 27 1.95057 56 1334 54 840
16719 -2.53477 -0.15528 0.500228 33 39 29 0.398228 53 1113 52 992
17000 -2.72698 0.103007 0.45225 0 0 7 0.888325 52 1731 51 1608 50 1749
22916 4.68303 0.430344 1.05439 22 22 10 1.13955 161 1054 164 1567 165 1338 167 1368 169 1349 170 1254 163 1540
3755 -0.901636 -0.0617091 0.449837 253 255 146 0.264637 79 2459 80 2463 81 2333 82 2339 83 2219 84 2176
507 -1.44791 -0.0426447 0.536657 52 72 36 0.499417 74 1589 75 1541 73 1326 72 1375 71 1338 70 1356 69 1189
9708 0.171248 0.0978921 0.741171 144 134 47 0.41392 98 203 99 197
6072 0.0850603 -0.290101 1.05732 57 71 36 0.0974657 86 325 88 37
509 -1.22098 -0.0408544 0.499209 25 27 21 0.701731 74 1592 75 1543 72 1372 76 1339 77 1747 71 1344 70 1358 69 1582
512 -1.10727 -0.0337805 0.540206 46 51 33 0.765857 74 1600 75 1550 73 1331 72 1379 76 865 78 459 77 466 79 475 81 143 82 117
6187 -0.468534 0.0506505 0.557917 17 17 8 0.442407 87 1326 88 1211 89 1222
16795 -2.70184 -0.169196 0.481353 39 36 18 1.733 53 1813 52 1659 54 1468 51 1540 50 1625 49 1600
4118 -0.674608 -0.053113 0.406048 137 199 88 0.555728 80 2261 81 2069 82 2071
14143 1.97061 0.0704644 0.449844 18 23 14 0.547912 120 891 121 875 123 735
8516 -0.0503919 0.0204945 -0.00770693 35 50 21 0.575449 92 210 93 227
12408 1.02045 0.367777 0.539812 32 34 18 0.525309 111 1073 112 1194 113 1135 114 1047
515 -1.53234 -0.0254001 0.536592 31 35 24 0.959359 74 2033 75 1557 73 1759 72 1393 76 1362 71 1738 70 1784 69 1587 68 1886 67 1457 66 1257 65 1306
30943 -4.8744 0.00671026 0.168966 40 53 35 0.474264 17 1153 18 1057
2689 -0.903154 -0.116039 0.428651 0 0 2 0.965739 79 2620 80 2591 81 2497 82 2425 83 2346 84 2311
3446 -1.83799 0.379756 0.653399 0 2 0 0.680794 71 2223 69 2105 67 1885 66 1676 65 1710
11547 0.576081 0.283817 0.497934 49 63 34 0.952565 106 857 107 935 108 1161
516 -0.874363 -0.0244151 0.481171 31 30 10 0.953576 74 2034 75 1559 76 1354 78 1420 77 1373 79 1464 80 1475 81 1329 82 1753 83 1231 84 1209 85 1083
2949 -1.38982 0.0440716 -0.0766352 0 0 2 0.507688 72 2520 71 1991
15241 1.96336 0.0320684 0.438543 254 237 72 0.537646 122 1458 123 1215 125 1008 124 1195 126 1042 127 981
5223 -0.424236 -0.0263247 0.518467 95 125 54 0.0551558 84 1204 85 1505
2058 -1.09506 -0.147989 0.527105 58 80 32 0.551264 78 792 77 378 79 829 80 1369 81 1227 82 1679
3108 -1.36071 0.121842 0.371405 59 91 28 0.611125 71 1451 70 1460 69 862
518 -0.901676 -0.0230736 0.485455 44 55 28 0.242965 74 1611 75 1564 76 1356
1161 -1.13335 -0.0824554 0.529131 32 46 21 0.362792 74 486 75 163 73 379
28027 -3.802 -0.130637 0.449575 0 0 2 1.30591 37 1421 36 1277 35 1514 34 1355 33 1659 32 1577 30 1526
24848 5.33349 0.433008 1.00313 0 0 0 0.710371 171 2203 172 2212
12916 1.44823 -0.284455 0.685461 255 252 207 0.760003 111 1562 113 1501 114 1448
2144 -1.19471 0.381895 0.451829 59 53 19 0.391582 78 1126 77 1104 79 1153 80 1731
5220 -0.3765 -0.0535852 0.579953 21 24 19 1.88897 84 1807 85 1481 86 1647
1594 -1.19623 0.300314 0.427129 31 39 17 0.615951 74 1806 72 1581 71 1549 69 1720
519 -1.61978 -0.022624 0.568772 59 81 40 0.511886 74 1609 75 1565 73 1344 72 1396
13688 1.69809 -0.0693637 0.600749 122 161 71 0.364205 116 729 117 1036
25418 5.57916 0.45018 1.1892 35 41 18 1.1558 174 936 175 1607 176 1452
520 -0.911473 -0.0202133 0.482162 46 58 34 0.6126 74 1616 75 1567 76 1360 77 1378 78 1810 79 1469 80 1477 82 1347 83 1234 84 1214
9319 0.347876 0.187381 0.509959 63 74 44 1.40563 92 1244 97 689 96 779
13279 1.68897 -0.0492862 0.605505 48 46 23 0.885299 114 1249 115 1312 116 1338 117 1315 118 1144
3399 -1.828 0.397429 0.634824 18 19 7 1.55095 70 1904 69 1713 68 1795 67 1550 66 1367
24321 5.16044 -0.0988034 1.06808 0 0 0 1.63708 167 1923 171 1978
7083 0.124323 0.364458 0.522884 255 203 50 0.605045 90 1866 91 1681 92 1828 93 1689 95 1679
24752 5.14504 0.186277 0.848363 36 43 9 0.466264 171 1597 172 1547 173 1287
1142 -0.905693 -0.0816415 0.450238 29 37 22 0.395172 74 1994 75 1926
16472 -2.67735 0.330212 0.49933 145 106 29 0.723364 54 1353 53 1431 52 1590 51 1490 50 1582 49 1466 48 1196
5389 -0.722413 0.435253 0.508059 50 59 27 0.85323 85 916 86 647 87 667 88 575
3077 -1.24953 -0.401885 0.643838 105 129 67 0.455278 71 686 70 1110
521 -0.878496 -0.0200332 0.474745 43 60 27 0.363255 74 1619 75 1568
27307 5.60078 0.26093 1.46685 0 0 2 0.281483 185 1566 186 1542 187 1571
4980 -0.584594 0.323575 0.543939 14 17 7 0.305495 82 1898 83 1778 84 1751
3764 -0.59016 0.0946952 0.459291 255 220 60 0.67866 79 2482 80 2495 81 2367 82 2257 81 2265 84 2108 85 2003 86 2143 87 2058
16591 -2.41218 -0.107784 0.411803 0 0 0 1.02615 54 2328 53 2356 52 2201
523 -1.51152 -0.0166301 0.540655 38 47 26 0.596024 74 1624 75 1570 73 1350 72 1397 76 1369 71 1373 70 1379 69 1219 68 1315
6446 0.180077 -0.219383 0.913578 255 255 135 0.568522 88 1818 89 1754 90 1684 91 1510 93 1501 94 1503 97 1394
524 -1.62352 -0.0136199 0.587614 208 180 54 0.121256 74 1627 75 1573
32945 -5.71707 0.227706 0.746963 35 47 24 0.176861 199 878 195 1083
1943 -0.90249 -0.136604 0.428304 30 35 25 0.574528 78 2330 76 2205 77 2283 79 2437 80 2452 81 2320 82 2324 83 2200
23200 4.31801 0.341238 1.0177 253 225 63 0.326872 164 1674 165 1603 163 1532 162 1499
7754 -1.64256 0.304374 0.490937 1 1 3 1.31496 66 1763 65 1711 64 1698 63 1573 62 1771
13634 1.69036 0.115401 0.571787 29 41 19 0.472847 115 1224 116 1393 117 1376 118 945
886 -1.16175 -0.0619274 0.539159 238 190 56 1.69364 74 2645 75 2540 73 2331 72 2378 77 2200 70 2460
12820 1.59022 -0.0419181 0.717329 102 130 55 0.639935 112 344 113 660 114 582 115 549 116 1072
7237 -1.96519 -0.0624453 0.524481 75 91 33 0.119403 68 1250 67 1087
526 -0.940602 -0.0129075 0.530406 23 29 20 0.0685054 74 1089 75 1575
31017 -4.85914 0.535501 0.96807 0 0 0 0.0798173 19 1403 18 1761
7295 -1.89912 -0.205306 1.05171 255 255 110 0.0801566 68 1949 67 1696 66 1498 65 1542 64 1540
1819 -0.856027 -0.219445 0.430125 87 124 63 0.277066 78 1208 76 1137 77 1179 79 1249
22807 4.68161 0.22276 0.975749 255 213 56 0.334055 161 1536 162 1654 164 1787 165 1940 163 1619
1851 -1.34483 0.102268 0.395023 42 48 21 0.117425 75 1642 76 1418
2898 -1.57543 0.143512 0.616464 177 171 65 0.172812 72 2402 71 2386
527 -1.50935 -0.0116577 0.543421 55 70 30 0.816796 74 1088 75 1577 72 1401 71 1378 70 892 68 867
19852 2.92406 -0.154446 0.958477 246 254 154 2.31199 137 1263 138 1187 139 1179 141 1329 146 975 142 1153 140 1219
557 -1.36133 0.103485 0.356399 52 67 37 0.371517 74 2082 75 1644 73 1803
4976 -0.810219 0.241408 0.499054 3 0 4 1.35576 83 1756 84 1729 85 1778 86 1989
2575 -0.686019 0.0665054 0.459118 87 112 51 0.115869 78 1841 79 1895 80 1537
24155 4.87173 -0.11215 0.829312 0 0 0 0.307308 167 2306 169 2302
530 -1.09917 -0.00484316 0.562915 34 47 24 0.463473 74 1632 75 1582 73 1356 72 1400 76 883
671 -1.40491 0.0451204 0.551985 26 24 14 1.14367 74 2063 75 1995 73 1788
14407 -2.40365 -0.149856 0.451101 31 38 23 1.01224 60 1313 59 1424 58 1172
32120 -5.79053 -0.0529632 0.744111 89 118 49 0.578443 4 1301 3 1331 5 1310
6389 -0.601125 0.101424 0.460527 83 91 38 0.159441 88 838 89 867
3579 -1.03517 0.0509324 0.55782 51 57 22 0.552651 79 972 80 987 81 464 82 897 83 823
5597 -0.421206 -0.0330737 0.493349 39 48 31 1.13947 84 1196 86 807 87 820
18195 -2.98617 -0.127041 0.478411 115 163 73 0.577692 46 1556 45 1325
532 -1.63131 -0.00220967 0.589488 34 39 25 0.564541 74 1634 75 1584 73 1360 72 1407
20339 3.16531 0.194308 0.997309 117 161 72 0.73639 141 1000 142 923 145 624
533 -1.5963 -0.00333503 0.552648 104 156 71 0.366026 74 1636 75 1585 73 842
534 -1.54587 0.00924091 0.564312 20 30 22 0.337469 74 1638 75 1587 73 1368
28131 -3.86626 -0.131107 0.452547 147 145 71 0.343774 35 69 34 51 33 275 32 256
1209 -1.04222 0.0458003 0.538908 61 82 36 0.593581 74 585 73 866 72 920
31085 -4.61701 0.044753 0.858056 0 0 0 0.123807 13 922 14 1411
6659 -1.81198 0.156533 0.662725 14 19 12 0.446462 69 1817 68 1897 67 1490
576 -1.19333 0.21204 0.393449 64 95 27 0.694417 74 1243 75 1704 76 1483
11200 0.826842 0.178486 0.465231 29 44 12 0.143142 101 1598 105 1644
22859 3.98367 -0.077918 1.59192 0 0 0 0.99802 161 862 162 1249
3802 -0.701265 -0.115712 0.451695 131 169 60 0.909104 79 839 80 876
17242 -2.89891 -0.0579727 0.460216 0 0 4 0.58413 51 1890 50 1934 49 1803
3454 -1.51777 -0.113038 0.537823 71 77 39 0.411286 71 2288 69 2150
26371 5.53611 0.210591 1.22121 53 63 47 0.171419 179 595 180 313
24085 4.64407 0.30326 1.02536 36 28 11 2.06695 167 1660 169 1618 168 1854
10089 0.417748 0.0719373 0.458123 1 2 6 1.26247 99 1884 100 1850 101 1910
535 -0.939175 0.0121958 0.501098 167 197 78 0.401199 74 1640 75 1593 73 1367 76 1374 77 1403
2237 -1.17638 -0.0964121 0.546622 122 92 35 0.64976 78 1771 77 1715 79 1396 80 1411
23004 4.80845 -0.0289646 0.884756 168 152 62 0.378204 164 280 165 310 163 568
539 -1.4365 0.0261791 0.521228 97 148 55 0.227841 74 1650 75 1602 71 1394 70 1397 69 780
16194 2.34071 -0.0487723 0.553151 35 38 17 0.588877 129 923 130 959 131 703
3603 -0.902136 -0.400627 0.516543 79 89 55 0.586908 79 1159 80 1170 81 602 82 1078 83 1520
540 -1.41076 0.0284707 0.540212 77 119 40 0.461015 74 1652 75 1606 73 1781 72 1421
12808 1.2667 0.248175 0.629758 67 106 42 0.421621 112 452 113 493 115 388 116 537
23911 5.04967 0.322252 0.928998 57 93 29 1.63515 167 1669 168 1857 169 1896
18041 -2.69583 0.0699799 0.457981 16 19 11 1.27807 47 1603 46 1602 45 1601
30687 -4.95989 0.276796 0.721521 43 57 34 0.305656 15 1441 17 577
541 -1.40911 0.0350471 0.593686 255 205 60 0.241486 74 1655 75 1607 73 1384
10493 0.523461 -0.133513 0.549517 139 176 84 0.376194 101 745 102 1092 103 1387
28652 -3.79409 -0.00553627 0.54845 25 37 18 0.92022 30 1407 29 1139
6788 0.05744 0.105819 2.0593 231 220 96 0.0519009 89 429 90 773
573 -1.12567 0.216662 0.419274 153 205 78 0.102335 74 1760 75 1699 76 1476
4838 -0.494106 -0.106074 0.443579 0 2 0 1.43634 82 360 84 296 83 703 85 1031 86 1615 87 1206
543 -1.12448 0.0357667 0.551051 48 58 25 0.616756 74 1132 75 1612 73 1386 72 911 76 1383 77 1411 71 1399 81 1373
15772 2.37374 0.267676 0.4489 38 52 16 1.53065 127 677 128 706 129 893
28946 -4.48975 -0.0820866 0.906301 86 115 53 0.195791 24 80 25 74
546 -0.92246 0.0354123 0.49036 28 48 21 0.145942 74 1670 75 1622
6106 -0.011118 0.0210235 1.09858 95 112 76 0.36081 87 472 88 394 89 123 90 130
1450 -1.25194 -0.406036 0.682826 139 176 105 1.18245 74 295 72 251 71 10
903 -0.94777 0.190856 0.507036 0 0 0 0.887603 74 2676 75 2573 73 2362
2076 -1.21106 0.133107 0.296147 74 70 18 0.205502 75 265 77 565
5516 -0.545833 0.200923 0.494327 21 35 21 0.89928 85 1296 86 1759 87 1772 89 1723 90 1524
21845 4.32417 -0.156624 1.18447 69 94 49 0.90506 155 342 156 281 158 369 157 156
9536 0.171115 0.0921761 0.742512 38 58 30 0.214193 97 634 98 942
547 -0.92348 0.0355024 0.488116 28 48 21 0.521489 74 1669 75 1623 73 1391
25321 5.34838 0.336989 0.973963 55 77 39 0.711502 174 178 175 453 176 1118
21193 3.63968 0.183622 0.827327 165 164 59 0.950292 148 1098 149 1309 150 1189 151 1173 152 1213 153 976 154 1217 155 1159
692 -1.50867 0.1786 0.364572 31 38 14 0.398392 74 2125 75 2042 73 2025
9804 0.349047 0.22358 0.499152 0 1 0 0.801195 98 1416 99 1376 101 1379 102 1349 103 1293
13727 1.62293 -0.208632 0.696657 255 255 114 1.16036 116 1609 117 1566 119 1335 120 1217
23967 4.9807 0.172376 1.02404 10 13 6 2.14595 167 782 168 1275 165 1216 166 1187 169 1584
865 -1.21359 -0.235117 0.564879 0 2 1 0.63546 74 2719 75 2501 76 2187
23963 4.67212 0.303128 1.01304 0 0 0 0.0145626 167 2276 168 2277
3731 -1.16278 -0.0633587 0.539469 218 173 50 0.420917 79 2209 80 2198 81 2071
16545 -2.74715 0.466294 0.510477 0 0 2 1.33894 54 2066 53 2114 51 1844 49 1683 48 1679 47 1753 44 1782 43 1534
18533 -3.38438 -0.00361491 0.536683 173 144 34 0.357796 44 139 43 149 42 88 41 125 40 106 39 122
5180 -0.51286 0.0719757 0.506772 20 29 10 0.780421 84 1289 85 1159 86 1337
548 -0.928353 0.0379595 0.495861 51 72 29 0.686123 74 1672 75 1624 73 1393 76 1389 77 1413
11262 0.722656 -0.318998 0.940201 0 0 0 0.172849 104 2253 105 2004
31369 -4.2635 -0.0253837 1.02686 0 0 0 0.0655971 19 1113 20 1198
7991 -2.08391 -0.174448 0.350266 254 254 169 0.965404 65 1843 64 1832 63 1719 62 1907 61 1749 60 1907 59 2059 58 2376
3970 -0.439093 0.414826 0.697649 25 27 14 1.38957 80 1704 81 1057 82 1572 83 1478
552 -0.985238 0.0999801 0.542185 8 16 5 0.577544 74 1160 75 1637 72 1450 77 1436 80 1558 81 1413 82 1431
2059 -0.931066 -0.124322 0.436162 37 41 25 0.665969 74 438 77 380
25227 4.86375 -0.29697 1.12629 0 0 0 0.989006 170 1780 174 2045
13066 1.64621 0.0313922 0.625502 131 163 58 1.30601 113 1475 114 1366 115 1431 116 1690
13416 1.70085 -0.219826 0.68275 56 67 44 0.137676 115 779 116 630
18697 -2.87787 0.347101 0.598548 22 33 17 0.220529 43 822 42 910
2525 -1.00615 -0.058307 0.486058 24 30 7 1.56511 78 1794 79 1432 80 1890 81 1725 83 1843
3173 -1.84772 0.268782 0.599931 27 29 10 0.924606 71 1497 70 1873 69 1660 68 1764 67 1525 66 1338 65 1394
11162 1.07663 0.332129 0.575548 36 48 28 0.521073 104 1120 105 1363 106 1409 107 1512
10910 0.604624 0.112336 0.489799 102 136 67 0.154186 103 1228 104 1441 105 1252
15732 2.02269 0.0138785 0.404662 0 0 0 0.940678 124 1264 125 1065 126 1100 127 1030
553 -1.51547 0.0983837 0.459803 115 163 61 0.0819263 74 1689 75 1638
4344 -0.872641 0.256684 0.449341 72 84 24 0.463393 81 583 82 1041 83 974 84 944 85 1339
15873 -2.45632 0.301806 0.352612 36 51 19 0.93389 58 2017 56 1716 55 1632
558 -0.962029 0.145943 0.534348 108 158 59 0.805821 74 1696 75 1645 73 1424
19276 2.75508 -0.0989787 0.803307 0 0 0 1.89832 134 1230 135 1179 136 1304 137 1308
4912 -0.882726 -0.114114 0.429071 0 0 0 0.0261552 83 1159 84 1135
14394 -2.06256 -0.361502 0.413676 243 254 245 0.879369 60 1244 59 1336 58 1877
8383 -0.217065 -0.0887272 0.600685 47 42 38 0.801221 92 1128 93 1070 94 1007 95 983 96 1303
4508 -0.438018 0.101534 0.548527 224 173 42 0.234906 81 2080 82 2085 83 2037 84 2005
560 -1.33609 0.116264 0.392124 173 230 84 0.522479 74 1700 75 1649 73 1431 76 1429 77 1787
17444 -2.5686 -0.352374 0.536518 247 253 116 0.269075 50 2055 49 1903
6506 -0.595887 0.326299 0.546275 33 46 13 1.63046 86 1918 87 1933 89 1737 79 1652 80 1697 81 1891 82 1901 83 1780 85 1789 84 1873 86 1917 88 1800 90 1674
5599 -0.278878 0.284741 0.788121 25 26 18 1.22227 85 828 86 984
561 -1.37538 0.111254 0.364936 190 253 100 0.253221 74 1701 75 1653 73 1434 72 1471
18996 2.90877 -0.137031 0.876734 249 253 152 1.61588 132 1073 135 1132 136 1195 133 1107
8225 -0.211826 0.145087 0.924284 0 0 0 0.661767 90 1933 92 1895 93 1740 95 1727
15333 1.96215 0.0811078 0.146083 0 0 0 0.701091 122 966 123 1169
7587 -1.87801 0.18785 0.591871 37 36 26 1.68071 66 1038 67 1218 65 727 64 410
919 -1.02955 -0.207861 0.418028 254 255 243 0.54772 74 2716 78 2431 75 2624 76 2280 77 2362 79 2544 80 2572 81 2420 82 2416
6045 -0.553747 -0.324105 0.477969 72 89 53 1.42768 86 1099 87 1825 88 1446 89 1634
563 -0.985977 0.167172 0.53183 56 74 35 1.9093 74 2090 75 1658 73 2001 72 1845
4936 -0.541246 0.211189 0.508101 69 86 45 0.232321 83 191 84 1401
27728 -3.61312 -0.126304 0.406609 0 2 0 0.720176 38 1315 39 1350 37 1422 36 1278
1603 -1.50149 0.380008 0.375373 59 68 42 0.787443 73 1921 72 1640
1353 -1.02158 -0.205189 0.519028 147 117 44 0.28963 74 2340 73 2069 72 2175
2528 -0.87689 -0.0401014 0.474425 71 57 15 0.520101 78 1413 79 1453 80 1896 81 1736 82 1742 83 1626
4087 -0.458691 0.255933 0.594705 22 23 13 0.270967 80 1991 81 1860
565 -1.34042 0.184318 0.452068 40 41 13 1.02495 74 1730 75 1676 73 1475 72 1506 76 1454 78 1559 77 1507 71 1476 70 1490
566 -1.20544 0.184765 0.451902 31 38 9 0.502452 74 1731 75 1677
5746 -0.3763 0.139258 0.56789 241 201 65 1.18711 86 540 87 944 88 1286 89 1705 90 1724 91 1601
4189 -0.810895 0.0737186 0.627352 0 0 0 0.782314 80 2656 81 2504
16332 -2.56729 -0.107607 0.475184 81 112 44 0.845551 55 1348 54 1061
14234 -1.9645 0.293891 0.567583 69 99 39 0.339675 61 1374 60 1446 59 1572
567 -1.17003 0.1892 0.460073 33 32 16 0.783073 74 1733 75 1679 76 1457
6979 -0.357337 0.017222 0.601241 0 1 4 1.1403 88 2167 90 1995 91 1793
568 -1.50528 0.165702 0.384009 74 97 44 0.584909 74 1221 75 1680 73 940 72 1008 71 1007 70 981
890 -1.01903 -0.0366486 0.537378 156 125 45 0.557886 74 2650 75 2546 72 2387 73 2341 76 2230 78 2264 77 2204 79 2357
7162 -1.46959 0.282802 0.327328 120 154 92 0.0393886 68 652 67 222
6743 -0.507042 0.0299289 0.442781 30 46 19 0.113371 89 138 90 152
17816 -2.90604 0.0636765 0.490243 20 24 10 0.587955 47 134 48 678 46 377
569 -1.51786 0.167773 0.352798 77 116 38 0.706404 74 1744 75 1688 73 1491
4921 -0.550018 -0.0109606 0.438526 62 78 41 0.708829 83 1245 84 1224 85 1096 86 1263 87 1678 88 1185 89 1508
1477 -1.51087 0.189533 0.381656 62 79 34 0.45937 73 499 72 537 71 240
570 -1.51446 0.179255 0.360525 73 101 42 0.462005 74 2126 75 1693 73 1497 72 1525 71 1499 70 1876
6968 -0.52292 -0.0244612 0.430585 0 1 1 1.86082 89 1768 90 1704
29369 -4.7243 -0.179415 1.34177 252 255 255 1.05181 21 843 19 1005 18 965 20 990 16 1229
25503 5.52405 0.505389 1.15368 0 0 1 1.63439 174 2280 175 2166 176 1990 177 2014 178 1699
604 -0.924935 -0.237786 0.449184 36 51 20 0.541384 74 1374 75 1840
28676 -4.18182 -0.0976081 0.493862 0 0 0 0.273061 30 1691 29 1562
19868 2.75168 -0.051394 0.743805 0 0 2 0.955057 138 1056 139 1043 141 1195
571 -1.27853 0.227112 0.462247 24 29 14 0.879346 74 1755 75 1695 73 1498 72 1527 76 1473 78 1905 77 1526
12757 -2.03275 -0.00403253 0.0895836 0 0 3 0.884103 62 1643 61 993
5391 -0.689174 -0.229554 0.431396 53 62 40 1.02307 85 963 86 679
1909 -0.831731 0.259434 0.480373 23 26 16 0.135822 78 2135 76 1974 77 2044 79 2225
572 -1.14153 0.214355 0.418566 47 63 25 0.727304 74 2138 75 1696 73 1847 72 1874 76 1475
11275 1.01256 0.35418 0.54467 48 60 36 0.155411 105 570 106 1229
13948 1.65445 0.0268675 0.608386 92 120 46 0.533828 118 603 119 626 120 569 121 601
15936 -2.46556 0.202306 0.317981 77 102 42 0.762259 57 1472 55 804
30457 -5.11629 -0.0952425 0.715773 97 119 50 0.934383 14 1316 16 1602 15 1139 17 1053
3789 -1.00854 -0.0928503 0.485722 0 0 0 0.976333 79 2623 80 2650 82 2484
8438 -0.35194 0.319913 0.747979 38 53 22 0.89917 91 1483 93 1368 92 1522 94 1156 95 1391
1526 -1.24047 -0.414554 0.746497 0 0 0 0.0924271 74 2330 75 2127
22702 4.60185 -0.0563563 0.90745 45 57 29 0.389077 161 796 162 858
2587 -0.881042 0.242234 0.451431 50 59 16 0.991875 78 1913 79 1980 80 2003 77 1817 81 1540 82 1536 83 1767
14150 1.62565 0.149163 0.482735 181 252 102 1.32308 119 1309 120 1251
24946 5.40038 -0.00631938 0.953391 65 82 50 0.878474 172 980 173 1069
1169 -1.29291 0.212097 0.498445 28 37 13 0.0460165 74 1222 73 491
27041 5.58992 0.463184 1.23264 0 0 0 0.0687557 183 1275 184 1540
696 -1.28952 0.230002 0.480251 21 23 13 0.15975 74 1753 75 2047 76 1767 77 1523
1109 -1.44753 -0.166521 0.603452 125 98 43 1.46763 74 2724 75 2632 76 2288
574 -1.18387 0.21041 0.399629 38 59 26 0.471047 74 1762 75 1700 73 1849 76 1003
16555 -2.74924 -0.00256006 0.445194 254 254 100 0.233788 54 2218 53 2162 52 2012 51 1975 50 1946
3706 -0.685132 0.149143 0.478532 30 41 13 0.331627 79 1929 80 1974 81 1839 82 1477
22299 4.46766 0.279998 0.907436 233 207 63 0.0120671 158 779 159 1025
719 -1.09018 -0.26076 0.534473 124 163 116 1.20045 74 2217 75 2136 73 1634
30973 -4.17022 -0.258539 1.00298 255 228 85 0.922191 17 1378 18 1366
7019 0.133183 0.265893 0.517765 129 119 47 1.15301 90 906 91 761 92 589
2277 -1.11914 0.0543535 0.558477 57 49 20 0.377044 76 1878 77 1931 79 2112 80 2121 81 1987 82 1989
1524 -1.45352 0.299715 0.346808 51 68 33 0.816226 73 1583 72 1079
578 -0.927035 0.280448 0.5177 85 120 48 0.659583 74 1774 75 1715 73 1513 76 1494
3421 -1.9059 0.0982392 0.694184 253 253 65 0.247138 70 2196 69 1911 68 2040 67 1770 66 1577 65 1615 64 1616 63 1497 62 1697 60 1635 59 1760
20964 3.44589 0.0389232 0.241634 35 68 27 0.229218 146 275 147 108
4942 -0.454884 0.495276 0.598951 137 147 85 1.38059 83 1008 84 1483 87 1563 89 992
32133 -5.8271 0.0306607 0.746652 90 129 34 1.61578 4 1734 3 1378 5 1732
5881 -0.38686 0.0321268 0.593657 35 24 20 0.603991 86 1679 87 1686 88 1562
579 -0.918533 0.273627 0.497979 59 83 39 0.635322 74 1775 78 1086 75 1717 73 1515 76 1495 77 1066 79 1108 80 641 81 248
3063 -1.1842 0.202161 0.464192 70 99 43 0.241939 71 1010 70 991 69 909
16249 -2.66915 0.0794077 0.460487 118 113 49 0.180616 55 157 54 337 53 463 52 374 51 335
1178 -1.18334 -0.512937 0.756912 242 255 238 1.28458 74 777 73 559 71 682 72 609 70 635 69 995
22468 4.63329 0.232242 0.976451 44 53 32 0.00234241 160 124 161 127
6201 -0.33864 0.298552 0.759084 28 40 20 1.21763 84 908 88 1338 89 1317 90 1260
4728 -0.563842 0.219395 0.490478 112 157 62 0.352595 82 1522 83 1749 84 1722 85 1644 86 1020
581 -0.886119 0.261931 0.45238 57 55 19 0.586599 74 1785 78 1594 75 1723 76 1500 77 1541 79 1639 80 1682 81 1550 82 1548 83 1456
21419 3.85565 0.235994 0.889935 57 47 8 0.388172 150 882 151 900
3172 -1.52816 0.172817 0.353466 224 254 110 0.248313 71 1809 70 1871 69 1668
582 -1.33983 0.259972 0.433989 113 126 43 0.114366 74 1793 75 1725
19334 2.96937 -0.129579 0.932013 145 184 91 0.291959 135 329 136 363 137 404
14963 2.06373 -0.0763821 0.445108 85 110 53 0.397502 121 517 122 545 123 396
15453 2.27997 -0.075512 0.605876 70 94 51 0.654695 123 1264 125 1120
2208 -0.750397 0.329064 0.497158 73 96 51 0.444718 78 1614 77 1558 79 1662 80 2028 81 1896 82 1574
622 -1.21933 -0.192656 0.616077 255 250 93 0.730942 74 1944 75 1878 76 1204 78 773
16434 -2.74246 -0.256225 0.441337 71 75 53 0.435046 54 912 53 1014 52 889
30846 -4.96237 0.0606714 0.313992 42 63 26 1.19701 14 697 17 507
2730 -1.93341 -0.0745079 0.950852 27 41 16 0.544685 72 847 71 480 70 834 69 385
584 -1.19714 0.243919 0.390856 113 157 60 0.57987 74 1796 75 1730 73 1537 72 1568 71 1535 70 1896
8436 0.279936 0.237603 0.602158 122 158 62 0.371445 92 1506 93 1362 94 1481 95 1546
11562 1.29966 -0.0460709 0.716512 21 26 11 1.7312 106 1007 107 1108 108 944 109 831
12098 0.8226 0.130864 0.478778 58 94 24 0.108481 109 947 110 768
12498 -1.98005 0.178133 0.582282 54 72 39 0.324252 63 356 62 839 61 736
17091 -2.73469 0.228223 0.444254 78 122 42 0.342626 51 409 50 483 49 426 48 415 47 519 46 190 45 432 44 573
585 -1.16347 0.280506 0.418872 104 156 62 0.932988 74 1273 75 1735 72 1897 76 1788 73 2122
1001 -1.22941 0.2667 0.470464 21 21 19 0.671354 74 1782 75 1719 73 1870 72 1889 71 1820 70 1890 69 947
31021 -4.8569 0.360453 0.970587 28 28 15 1.23176 15 270 19 447 14 1164 15 1423 17 916 18 530 22 892 21 582 19 1075 20 718 20 1078
29829 -5.15275 0.252003 0.654137 177 144 43 0.341361 13 2270 12 2051 14 2372
4652 -0.90071 0.00601563 0.487738 37 38 22 0.374155 80 960 83 783 84 723
15000 1.93843 -0.0237403 0.399182 94 114 49 0.161956 121 829 122 860 123 670 124 705
1485 -1.226 -0.268267 0.58956 78 87 56 0.549718 73 1084 72 636 71 1139 70 1132
586 -1.49105 0.251062 0.340749 92 125 44 1.21051 74 1805 75 1737 72 1584 73 1554 71 1547 70 1568 69 1414 68 1513 67 1308 66 1370
11552 0.56804 -0.266653 0.695136 58 82 46 0.177503 105 604 106 886 107 978
6779 0.402693 -0.2727 1.80036 109 122 59 0.232994 86 764 90 704
645 -1.03481 -0.0697296 0.519053 125 89 27 0.655412 74 2007 75 1940 76 1674 77 1735 78 1393 79 1418 80 467
2037 -0.964541 0.155708 0.541812 134 116 16 0.498781 74 621 77 173 79 221 80 239 81 210
5324 -0.462181 0.12656 0.532173 0 1 1 1.68966 85 2006 86 2148 87 2142 88 2018 89 1929 84 1924 90 1839 91 1652
587 -1.16651 0.294384 0.42436 36 42 14 0.879804 78 620 75 1739 76 1518 77 1084 79 634 70 1908 80 1145
3542 -0.71247 0.0929116 0.459405 38 57 23 0.0691448 79 200 80 548 81 186
14997 2.10038 -0.0330098 0.473349 54 73 38 0.355693 121 815 122 848 123 661
20075 2.72833 0.276801 0.789405 21 26 15 0.138519 140 373 141 597
922 -1.40786 -0.198555 0.552544 251 255 168 0.0879166 74 2721 75 2628 73 2307
14001 1.56665 -0.218264 0.731869 255 255 163 0.112517 118 1342 119 1372
14322 -2.38034 -0.144158 0.443941 87 110 56 0.225814 60 283 59 317 58 741
588 -1.49383 0.250443 0.336656 63 77 28 0.782463 74 1812 75 1740 73 1556 72 1585 70 1569
6212 -0.385983 0.410265 0.715334 0 2 0 0.456252 86 1791 88 1394 89 1370
822 -0.993046 -0.195874 0.436206 0 1 1 0.840232 74 2406 75 2397 73 2138 76 2076
17688 -2.73709 -0.262655 0.447481 48 56 33 0.192976 48 839 47 927 46 842
4647 -0.821881 -0.0814356 0.488338 38 51 26 0.65447 78 414 83 717 84 659
12886 1.5213 0.139864 0.47706 62 81 34 0.717271 112 1319 113 1261 114 1175 115 1240 116 1403
1491 -1.35245 -0.145193 0.647769 65 91 50 0.561486 73 707 72 761 71 805 77 814
31313 -5.09053 0.203153 0.646935 0 0 0 1.50054 10 2150 11 2245
23842 4.76626 0.346202 0.999037 63 95 45 0.641621 167 477 168 937 169 1303 170 1210 171 1324
10458 0.0709225 -0.229673 1.03608 91 114 96 0.695821 101 393 102 707
7635 -2.02573 -0.254055 0.355683 88 106 64 0.532274 66 1392 65 1214
687 -1.25538 0.196994 0.490132 53 75 28 0.451416 74 2111 75 2030 73 1828 72 1504 76 1757
589 -1.49154 0.256991 0.342745 42 46 28 1.40418 74 1813 75 1741 73 1010 72 1064 71 1551 70 1572 69 1417 68 1515 67 1310 66 1124
19820 3.26713 0.411811 0.838926 31 29 15 1.69062 138 777 139 784 140 848 143 833
7975 -1.90029 0.374383 0.596547 83 119 55 0.341219 65 1775 64 1761 63 1713
1984 -1.34257 0.129619 0.419519 35 49 24 2.09465 74 1178 76 950 77 1476
590 -1.1804 0.309693 0.425306 36 28 9 0.73209 74 1818 75 1750 72 1587 70 1578
13604 1.72091 0.18614 0.55053 28 26 14 1.07163 115 1245 116 1202 117 840 118 975 119 1216 121 925
3560 -1.02011 -0.25066 0.423286 73 95 49 0.727538 79 700 80 733 81 1119 82 1124
24619 4.7992 0.220881 1.07381 32 45 18 0.768974 170 738 172 378
2052 -1.29054 -0.223801 0.641588 50 62 42 0.585406 74 374 77 350
7147 -0.592066 0.208088 0.492417 23 28 17 0.856851 80 1634 81 1494 82 1511 83 1430 84 1403 85 1301 86 1462 87 1471 89 1324 90 1272 87 1013 88 915
591 -0.870085 0.374308 0.534624 39 52 31 0.738411 74 1822 75 1754
20680 3.55859 0.199376 0.776418 36 46 22 0.480756 144 373 145 631 146 485
592 -1.1323 0.297868 0.386027 34 59 29 0.910885 74 2162 75 1755 73 1883
9682 0.0778061 -0.277712 1.08868 205 171 82 2.20433 97 1527 98 2147 99 2038
4285 -0.69717 0.0615348 0.469966 43 43 13 0.746008 81 470 82 455 83 832
29033 -4.2222 -0.136041 0.547344 95 121 59 1.00773 26 445 25 208
691 -1.27482 0.220575 0.481389 255 255 86 0.615739 74 2122 75 2041 73 1838 72 1867 76 1899 78 2131 79 2222 71 1496 70 998
593 -1.11337 0.335666 0.423344 67 57 23 1.13767 74 1831 75 1766 73 1887 72 1912 76 1529
17465 -2.74578 0.291987 0.459942 97 141 56 0.231655 49 1459 48 1470 47 1523 45 1511 46 1520
8985 0.0517569 0.274572 0.53889 37 48 33 0.585918 92 950 95 1161 96 845 97 1076
2656 -1.18994 -0.0747789 2.00905 0 2 0 2.26107 74 529 79 466
595 -1.016 -0.376244 0.469171 166 155 66 0.452507 74 2204 75 1812 76 1553
30478 -4.50401 0.184545 0.895892 51 69 31 0.762312 14 1099 15 1335 17 1453
16590 -2.75107 -0.281437 0.459042 0 0 0 1.81889 54 2326 53 2349 52 2196 50 2084
20535 3.45785 -0.0216259 0.833964 0 1 0 0.413447 143 969 144 846
935 -1.03039 0.0295517 0.555613 79 71 33 1.98205 74 2743 75 2654 72 2396
11852 1.29731 0.383227 0.687759 0 0 0 0.495001 106 1636 108 1559
28600 -4.03525 0.197067 0.391311 251 255 142 0.497442 31 1601 30 1674 29 1555 28 1367
24804 5.33225 0.33831 0.944018 0 0 0 1.34999 171 1892 172 1900 173 2107
2707 -0.881422 -0.0315335 0.478237 251 255 76 0.407237 74 2431 78 2175 75 2353 76 2031 77 2099 79 2281 74 2430 75 2352 76 2030 78 2174 77 2098 79 2280 80 2266 80 2267 81 2142 81 2143 82 2145 82 2146 83 2026 83 2027 84 1989 84 1990 85 1883 85 1884
765 -1.06778 -0.134925 0.547287 147 113 37 0.692644 74 2351 75 2257 76 2012 77 2080
9867 0.124002 0.317418 0.486804 181 176 50 0.978917 98 2127 99 1917
9826 0.381041 -0.0690571 0.519705 252 255 159 0.313248 98 1585 99 1514 100 1517 101 1502 102 1462 103 1416
30254 -5.17603 0.0786561 0.634321 49 71 29 0.32854 13 1720 14 1805
21325 3.94568 0.303138 1.01276 0 0 2 1.09442 149 1202 150 1085
837 -1.54462 -0.0394572 0.532606 249 254 123 0.419856 74 2514 75 2427 73 2236 72 2266 71 2182 70 2260 69 2048 68 2115 67 1839 66 1627 65 1665 64 1654
10708 0.90626 0.0929207 0.503154 50 51 14 0.796699 102 1521 103 1476 104 1691 105 1635 106 1472 107 1568
2508 -1.30897 -0.203323 0.686522 98 123 65 0.212054 78 1285 79 1343
596 -0.945555 -0.355513 0.433222 44 61 35 0.932927 74 1886 75 1813 76 1068 78 1661 77 1606 79 2037
32894 -5.62224 0.321744 0.741375 125 92 21 0.806564 4 2313 5 2338
5862 -0.49934 -0.2696 0.435001 246 246 132 1.44427 86 1571 87 1582 88 1458 89 1416 90 1375
16345 -2.4712 0.098753 0.243092 1 3 0 1.88278 55 1463 54 1931
31141 -4.66527 -0.122608 0.973329 58 77 64 0.387754 10 1245 11 1257
2082 -0.830675 0.281941 0.474767 45 49 23 1.23395 78 1097 77 616 79 1648 80 1692 82 1051
26983 5.53739 0.0196977 1.59829 48 57 36 0.398693 183 228 184 280 185 572 187 580
597 -0.868565 -0.406373 0.535891 52 63 54 0.108496 74 1887 75 1814 77 1608
1261 -1.48553 -0.0115977 0.532205 79 108 44 1.22611 75 1029 73 1353 72 885 76 882 71 1379 70 1386 69 1599 68 1694 67 1461
3043 -1.43715 -0.0929146 0.542175 42 51 20 0.574264 71 846 70 801 69 708 68 472 67 346
13029 1.0785 0.223554 0.59871 34 48 25 0.479351 113 1054 114 986 115 1027
3674 -0.905458 0.442189 0.60667 50 51 33 0.251335 79 1690 80 1719
4272 -0.574034 -0.176811 0.393753 60 88 44 0.157668 81 343 82 329 83 653 84 1091
32435 -4.57588 -0.0573815 0.884312 0 1 0 1.43807 22 1216 23 1115 21 1121 24 1016 19 1368 16 2154 14 2322 15 2218 17 1905 18 1719 20 1395
18853 2.6701 -0.17576 0.767794 58 70 34 0.766906 130 604 131 479 132 792 133 826
9615 -0.312784 -0.150857 1.339 0 1 1 0.693882 95 1522 98 1859 99 1682
17841 -2.74284 0.0785638 0.446303 106 121 49 0.197779 47 1179 46 708
599 -1.01829 -0.316152 0.439996 177 222 116 0.197008 74 2209 75 1821 76 1086
16925 -2.70552 -0.0270856 0.430945 79 107 55 0.950683 52 335 51 608 53 1210
15108 1.67603 0.370132 0.45727 0 1 0 1.00028 119 1365 122 1560
600 -1.02433 -0.308722 0.508126 41 46 40 0.521892 74 1899 75 1823 73 1618 72 1654
29734 -4.51869 0.337619 0.980486 28 37 17 0.802542 13 1449 12 1245 14 1871 15 1403 17 1496 18 1136
3576 -1.13222 0.0338243 0.556697 60 76 34 0.268024 79 1495 80 972 81 1369 82 882
16830 -2.79026 0.0246755 0.459302 0 0 0 0.610853 53 2070 52 1922 51 1795
20701 3.17341 0.112685 1.10666 71 101 39 0.256306 144 815 145 876
5119 -0.512476 -0.272599 0.458804 86 95 53 0.596236 84 555 85 527 86 662 87 296 88 581
14086 1.65079 0.0480529 0.60621 116 171 67 1.09419 119 634 120 869 121 859 122 899 123 476
1764 -1.23645 -0.0636859 0.515424 104 111 33 0.285134 78 113 76 442 77 448 79 461
601 -1.17989 -0.304684 0.587874 70 81 44 1.26469 74 1903 75 1834 73 1624 72 1657 76 1574 78 1685 71 1627 70 1118 80 1237
11448 0.507099 0.25093 0.475216 42 35 10 1.71955 105 1346 106 1201 97 1375 98 1717 99 1625 100 1407 101 1405 102 1375 103 1316
