# 3D point list with one line of data per point:
#   POINT3D_ID, X, Y, Z, R, G, B, ERROR, TRACK[] as (IMAGE_ID, POINT2D_IDX)
# Number of points: 550, mean track length: 4.14664
6877 -2.43018 0.0589273 0.47095 26 32 18 0.289026 84 1076 85 1830 86 2363
17916 6.0685 -0.0266781 1.85164 162 217 100 1.35716 183 1959 184 2733 185 2394
5488 -2.5579 0.136762 0.505535 58 65 32 0.0918657 79 1395 80 557 81 491
5489 -2.58723 0.174809 0.481485 28 41 23 0.355917 79 1444 80 584 81 517
7212 -2.00117 -0.244675 0.552223 104 146 62 0.736248 85 3020 86 4013 87 4098 88 3682 89 3139
5490 -2.60198 0.215368 0.476713 67 82 49 0.558051 78 506 80 604 81 541 84 2138 85 1992
16139 4.20269 0.312988 1.75158 255 250 53 0.307105 167 3398 168 3792 169 3734 170 3401 171 3706
5495 -2.57541 -0.244234 0.397952 47 59 37 0.324617 79 1050 80 1097 81 967
7757 -2.24849 -0.147298 0.401083 50 58 32 0.236461 87 381 88 308 89 336
5503 -2.64192 -0.129903 0.434689 116 102 29 0.356192 79 2214 80 1204 81 1080 82 899 83 873 84 840
14786 3.16308 0.151942 1.38293 69 102 40 0.201953 156 322 157 297 158 338 159 331
5504 -2.55593 -0.114353 0.452573 93 122 55 0.162324 79 1196 80 1219 81 1093 82 919
10280 -0.890299 -0.193695 0.604932 58 77 36 0.691142 104 4196 105 3466 106 3318
14844 3.91173 -0.451634 1.65353 44 56 32 0.300035 156 1655 157 1614 158 2071 159 2053
5505 -2.29796 -0.0823957 0.399117 63 68 25 0.272699 79 1210 80 1238 81 2065 82 1883 83 1743 84 1767
5506 -2.43319 -0.0755962 0.42061 53 68 37 0.219585 79 1220 80 1247 81 1121 82 948
7657 -2.2318 -0.136591 0.390803 31 41 21 0.253629 86 3571 87 4126 88 3301
5507 -2.43686 -0.0721669 0.423771 76 89 59 0.238625 79 1226 80 1248 81 1124 78 359
16744 5.03068 -0.0311443 1.63856 18 24 16 0.51399 172 3201 173 2930 174 3054 175 3255
5508 -2.53693 -0.0703629 0.462291 45 56 24 0.293624 78 1990 80 1254 81 2085 83 1768 85 1639 86 2155
5512 -2.2788 -0.0175469 0.449537 74 75 33 0.157456 79 1255 80 1311 81 1193 82 1018
5515 -2.42222 0.017762 0.456488 73 80 19 0.186618 79 464 80 1350 81 1236 82 1060
6933 -1.88596 -0.35666 0.665953 32 38 22 0.909478 84 3143 85 2972 86 2764
5518 -2.78311 0.0509195 0.516999 19 29 8 0.183604 79 1303 80 1397 81 1280 82 1083
14563 2.96284 0.0688096 1.31773 154 203 76 0.332428 150 1924 151 2167 152 1949 153 1860 154 2276 155 1697
5520 -2.5882 0.177051 0.477293 57 74 35 0.394424 79 1446 80 1522 81 1391 78 1252
5522 -2.31263 0.250506 0.603724 68 62 26 1.1097 79 1471 80 1553 82 1224 83 2123 84 1210 85 1180 86 2557 87 1667 88 1363 90 1399
12052 0.474773 -0.127576 0.849154 21 31 13 1.7538 120 2961 121 2911 122 3226 123 2530
5524 -2.48868 0.383925 0.556969 92 98 31 0.627787 79 2644 80 1570 81 1431 83 501
8165 -1.82623 -0.300455 0.594271 53 74 43 0.534565 90 1720 91 1471 92 2088 93 2074
9507 -0.881655 0.0986569 0.576977 33 43 19 0.696984 99 4371 100 3929 101 4258
5526 -2.40944 -0.398435 0.290774 41 55 32 0.213048 79 2762 80 1741 81 1585 82 1427
5528 -2.57185 -0.391071 0.301918 70 93 50 0.20365 79 1717 80 1821 81 1649 78 658
8009 -2.2836 0.0967307 0.492683 26 39 20 0.29117 88 3851 89 3276 90 3675
5529 -2.62706 -0.338266 0.310046 56 76 43 0.40156 78 1558 79 1868 80 1965 81 855 82 1597 83 1440 84 1447
8073 -1.48057 0.268733 0.599125 43 53 18 1.1592 89 2574 90 2275 91 1897
11391 0.296013 0.358846 0.826352 235 185 49 0.45661 114 2890 115 3077 116 3434
5531 -2.70795 -0.316492 0.314397 36 44 25 0.318777 78 2481 80 1999 81 1779
5532 -2.62706 -0.310133 0.313521 103 134 77 0.354273 79 942 80 2001 81 878
13255 1.7843 0.10557 1.18581 66 87 31 0.157748 135 726 136 361 137 661 138 816 140 792 141 753 142 802
5533 -2.62379 -0.276133 0.343708 29 38 16 0.452554 79 1959 80 2070 81 2682 83 2362
12431 0.975393 0.0903342 0.698386 71 92 51 0.460096 125 1714 126 1379 127 1386
18168 -5.35019 -0.320915 0.161496 255 255 199 0.216321 42 2505 41 2953 40 2604
5536 -2.43845 -0.241275 0.384737 77 101 42 0.278521 79 1036 80 2124 81 1857 82 1708
5538 -2.98198 -0.246839 0.436501 34 40 28 0.44109 79 2099 80 2169 81 1907
5539 -2.41014 -0.195489 0.331268 57 90 33 0.329317 78 1800 79 2091 80 2177 81 1906 82 1738
7028 -2.30947 0.143013 0.521014 48 54 26 0.257654 84 4209 85 3977 86 4523 87 4606 88 4213 89 3595
14508 2.8996 -0.119702 1.23274 68 94 43 0.375186 150 472 151 1135 152 594
8119 -1.50544 0.230926 0.608607 29 40 24 0.81468 89 3299 90 3706 91 3177
5541 -2.9949 -0.236427 0.43691 59 67 33 0.608506 79 3107 80 2188 81 1925
5944 -2.58308 0.0789199 0.478173 68 93 42 0.232234 80 2472 81 2258 83 1995
5544 -2.62442 -0.19924 0.406256 73 94 53 0.199629 78 961 80 2200 81 1942 82 1766 83 1605 84 1624
5605 -2.86535 -0.227066 0.458319 38 55 23 0.393133 79 3118 80 3224 81 2790 78 2652 82 2582
5546 -2.62255 -0.179347 0.410533 56 80 40 0.109726 79 2163 80 2222 81 1971 82 1784
9753 -0.86822 -0.00170164 0.570739 50 69 35 1.04672 100 4007 101 4335 102 4179 103 4037
14399 2.986 0.00152137 1.34362 50 68 30 0.344361 147 2101 148 1946 149 1625 150 1397 151 1616 153 958 154 1315
5547 -2.67914 -0.181683 0.4168 21 27 17 0.323979 79 3163 80 2226 81 1973
5548 -2.67676 -0.165603 0.410597 43 50 13 0.478189 79 2180 80 2238 81 1989 78 1896 83 2472 84 2577
5549 -2.65962 -0.151015 0.428431 38 54 27 0.0648837 79 2196 80 2248 81 2007
7029 -2.30939 0.142971 0.521097 48 54 26 0.251767 84 4210 85 3978 88 4214 89 3596
5550 -2.92896 -0.164608 0.482574 39 55 29 0.280311 79 2200 80 2251 81 1059
5552 -2.42611 -0.123352 0.388854 109 99 25 0.313879 79 1171 80 2253 81 2020 82 1827 83 1700 84 1713 85 811
5553 -2.65394 -0.121027 0.437021 51 66 35 0.725542 79 2226 80 2263 81 2869 82 1851
16531 4.87847 0.361872 1.66155 24 30 15 0.28237 171 1909 172 1862 173 2704
7012 -2.27836 -0.280051 0.295582 22 34 19 0.47222 83 3914 84 4121 85 3889 86 4433
5555 -2.32136 -0.100931 0.412075 39 52 29 0.188883 79 2227 80 2271 81 1094
12999 1.55249 0.237932 0.907696 20 27 16 0.383114 133 2135 134 2220 135 2125
10823 -0.376846 0.14832 0.666895 75 101 37 0.359314 109 2224 110 2549 111 2458 112 2472 113 2607
10201 -0.928243 -0.20286 0.61012 105 139 68 0.127822 104 2212 105 1785 106 1673
5556 -2.54819 -0.0980205 0.449108 121 157 66 0.190756 79 2250 80 2288 81 2058 82 1874
17602 5.36719 -0.138264 2.3371 126 168 58 0.522954 179 1221 180 1318 181 1347 182 1290 184 1717 185 1425 186 1694 187 1442
5558 -2.3245 -0.0836105 0.418981 56 75 29 0.456467 79 2254 80 2298 81 2066 82 1886
7280 -2.1303 -0.00375543 0.566178 39 58 25 0.141826 85 313 87 529 88 412
5561 -2.39834 -0.0762221 0.436272 42 59 34 0.116386 79 2271 80 2309 81 2071 82 2712
8307 -1.67532 0.233373 0.76456 30 38 17 1.00595 91 3453 92 4105 93 3962
5565 -2.42334 -0.0209516 0.41925 88 118 44 0.26079 79 1257 80 2371 82 1017 83 985 84 963 85 955 86 1306 87 1415 88 1154
6514 -2.08921 -0.105183 0.541572 205 246 108 0.377197 82 1860 83 2522 85 2426 86 2962 87 3073 88 2702 89 2288 90 2654 91 2222
10284 -0.812608 -0.0229599 0.628221 138 201 96 0.854903 104 4262 105 3513 106 3389 107 3300
11205 -0.231844 -0.141285 0.985993 48 69 35 0.759817 113 3156 114 2585 115 2492 116 2765 117 2480
16724 4.90734 0.192117 1.59584 122 100 28 0.788461 172 1733 173 2557 174 2683 175 2495
5566 -2.32398 -0.0110481 0.443761 36 49 23 0.57188 79 2344 80 2377 81 2151
9296 -0.879262 -0.145312 0.595152 95 126 63 0.181378 98 2861 99 2171 100 1896
5568 -2.62009 0.00167654 0.472689 81 89 31 0.549678 79 2358 80 2396 81 1222
5569 -2.64234 0.0288303 0.443752 97 129 44 0.288036 79 2369 80 2429 81 2210
5572 -2.42883 0.0551584 0.463912 42 57 27 0.449774 79 2387 80 2439 81 2234 82 1087 83 1091
7418 -1.84931 -0.0775112 1.04636 46 61 38 0.332921 86 2174 87 2297 88 1955 89 1666 90 1940
5574 -2.31844 0.10047 0.495348 29 42 22 0.570324 79 1352 80 2494 83 1141 81 467 84 2034
5575 -2.3226 0.10304 0.494436 79 102 44 0.0774417 79 2454 80 2499 81 2286 84 1111
7498 -2.195 -0.179335 0.432001 99 124 40 0.325276 86 1996 87 2996 88 2618
12265 1.02566 -0.0387508 0.64996 170 233 78 0.115841 122 2178 123 1615 124 1807
5576 -2.55951 0.134188 0.512432 20 26 22 0.457953 79 1390 80 2531 81 2308 82 2136 84 2076 85 1915
6189 -2.08867 0.280184 0.817137 15 20 13 1.11666 80 5108 81 4552 82 4240 83 3989 84 4070 85 3844
5577 -2.56972 0.146856 0.495705 73 97 45 0.197241 79 1408 80 2547 81 2317
5583 -2.72687 -0.454808 0.312332 104 144 73 0.307354 79 2739 80 2799 81 2482 82 3049
14770 3.81764 -0.472127 1.69639 241 217 99 0.90216 155 1569 156 1894 157 1854
7116 -2.23254 0.108273 0.518808 89 113 52 0.128672 85 1094 86 2416 87 2529 88 2178
17315 5.212 0.165613 1.86404 81 107 60 0.296355 177 3137 178 2844 179 2706 180 2845
5584 -2.38088 -0.392742 0.31257 73 89 56 0.603136 79 2789 80 2881 81 2517 82 3087 83 2248 84 2303 86 1708
5585 -2.6898 -0.346574 0.244655 101 136 74 0.538468 79 3682 80 2949 81 2568
10882 -0.338706 0.195324 0.670203 40 39 18 0.363313 110 2034 111 1907 112 2499 113 2650
15048 3.98647 -0.28618 1.59591 43 43 23 0.229351 158 955 159 1028 160 470
8428 -1.9149 0.149404 1.11407 40 52 30 0.221512 92 2499 93 2445 94 2092
8430 -1.11505 0.127563 0.61029 49 73 31 0.53157 92 2487 93 2449 94 2104 95 2016 97 1534 96 2152 98 2456 99 1654
5587 -2.80713 -0.363039 0.297791 132 105 38 0.433095 79 2890 80 2981 81 2595 78 1529 82 3135
7788 -2.31325 0.0378784 0.463889 63 84 27 0.0963927 87 572 88 1222 89 1087
14189 1.87234 0.126231 1.30611 88 118 48 0.261668 141 1578 143 1091 144 1436
5590 -2.68399 -0.339738 0.271061 34 47 29 1.14359 79 1822 80 2992 81 3335
11509 0.59464 -0.341256 0.807011 70 95 40 0.28908 115 1881 116 2166 117 1642 118 1280 119 1278 120 1116
5591 -2.68302 -0.32031 0.306552 37 40 31 0.642131 79 2935 80 3045 81 2635 74 3018
5592 -2.4594 -0.279704 0.396358 66 87 48 0.586369 79 3758 80 3119 81 3390 82 3195 83 2985 84 3153
5595 -2.60246 -0.253177 0.398051 49 52 35 0.386879 79 3030 80 3151 82 3217 83 3025 84 3188 85 2992
5596 -2.45475 -0.241539 0.380935 28 39 23 0.523542 79 3780 80 3152 81 2722
5598 -2.77934 -0.24156 0.356196 86 119 50 0.417794 79 3793 80 3167 81 2732
5602 -2.35007 -0.188165 0.339397 76 98 34 0.508025 79 3092 80 3217 81 2778 82 2576 83 2425
8076 -1.98265 -0.319356 0.595276 54 71 41 0.641403 89 2162 90 2524 91 2099 92 2850
6916 -2.43863 0.0403753 0.460297 36 50 21 0.314733 83 2689 85 2635 86 3158
15598 4.30907 0.0648509 1.5734 125 157 58 0.495562 163 1980 164 1109 165 900 166 1088 168 1820 169 1701
5606 -2.65206 -0.193369 0.385562 85 120 52 0.217619 79 2136 80 3232 81 2799 82 2593
5607 -2.65206 -0.193369 0.385562 85 120 52 0.217619 79 2137 80 3233 81 2800 82 2592
7594 -2.09313 -0.0590751 0.548633 36 40 23 0.409147 86 3027 87 3755 88 3351
7472 -2.10559 0.444538 0.779247 62 68 42 0.190178 86 2590 87 2677 88 2302
16814 5.09884 -0.491005 1.78343 133 169 132 0.826894 172 3928 173 4134 174 4338 175 4029
5611 -2.9916 -0.205294 0.417096 22 33 20 0.392512 79 2155 80 3249 81 1953
12641 1.20955 -0.194419 0.845426 143 127 35 0.0549192 128 727 129 356 130 374
5612 -2.9873 -0.206827 0.423707 27 39 22 0.459109 79 2154 80 3250 81 2810
5614 -2.95453 -0.208394 0.447798 148 199 82 0.305646 78 2675 80 3253 81 3478
5617 -2.66036 -0.16517 0.413044 49 72 35 0.442572 79 3858 80 3274 81 2832 82 2634 83 2473 84 2578 85 2348
15779 4.32139 0.0787809 1.56575 129 175 66 0.589195 164 2709 165 1512 166 1915 167 1498 168 1039
7288 -2.12576 0.447914 0.712711 167 170 101 0.345578 86 661 87 700 88 568 89 573 90 651
5618 -2.69186 -0.164023 0.409746 36 41 21 0.264922 76 2728 80 3275 82 2637
10129 -0.342805 0.310907 0.778129 23 25 17 0.713109 103 4149 104 4650 105 3850 106 3721
8172 -1.42827 0.241646 0.618413 93 127 50 0.747855 90 2228 91 1855 92 2626
7423 -2.31831 -0.0421104 0.430216 21 25 11 0.076263 86 2197 87 2323 88 1992
5619 -2.64499 -0.156739 0.41197 31 39 22 0.0712032 79 3177 80 3278 81 2840
5620 -2.75411 -0.164182 0.455088 70 99 40 0.273603 79 3181 80 3280 81 3503 82 3302 83 3095
10628 0.0226582 0.223871 0.900662 40 55 26 0.418358 107 2968 108 2524 109 2252 110 2593 111 2491
8101 -2.05256 -0.139406 0.619279 22 24 14 0.822615 89 2817 90 3210 91 2733
5621 -2.6536 -0.154121 0.416009 18 25 18 0.695556 79 3180 80 3282 81 2004 82 1813
12841 1.50182 0.36941 0.876049 255 249 73 0.386919 131 1866 132 2230 133 2181
5625 -2.64816 -0.122383 0.442196 24 24 12 0.768044 79 3204 80 3310 81 2868 78 2726 82 2668 83 3110 84 3295
18285 -5.51175 -0.0465059 0.263596 88 127 67 0.45328 39 2299 38 2187 37 2273
13330 2.39668 0.229362 1.36574 21 33 9 0.790873 136 1388 138 882 140 859 141 1223 143 680 142 853 144 684
5633 -2.54491 -0.0847628 0.467661 29 51 19 0.411056 79 3239 80 3356 81 2915 82 1895 83 1753
5634 -2.30716 -0.0678373 0.410595 97 132 78 0.299809 79 3242 80 3364 81 2922 82 2718 83 2556 84 2691 85 2470
7853 -2.23837 -0.00023747 0.514032 19 31 12 0.182759 87 3807 88 2844 89 2891
5637 -2.41059 -0.0651903 0.443542 176 148 52 0.785751 79 3248 80 3373 81 3544
9591 -0.90117 -0.188994 0.623485 71 96 43 0.140126 100 2586 101 1999 102 2808
15497 4.23555 0.249608 1.76579 23 28 12 0.485027 162 2992 163 3257 164 2799
16568 4.54776 0.244492 1.63927 255 255 83 0.728612 171 3011 172 2472 173 3143
5641 -2.54921 -0.0563321 0.470701 23 29 17 0.216039 79 2302 80 3395 81 2950
5804 -2.51335 0.285522 0.559136 18 25 10 1.45055 81 4556 82 4376 83 4126 84 4333
5642 -2.32409 -0.0360211 0.402751 128 176 74 0.229848 79 3269 80 3408 81 2970 82 2758 83 2603 84 2748 85 2523 86 3058 87 3170 88 2805
15931 4.23571 -0.0898378 1.5172 133 183 76 0.338972 164 3607 166 3520 168 2993 169 2897
5643 -2.58209 -0.0430776 0.49846 13 20 13 0.987798 79 3270 80 3410 81 2973 82 2759
5645 -2.58665 -0.0396405 0.492928 65 83 43 0.281917 79 3940 80 3413 81 3577 82 2762
5646 -2.328 -0.00902909 0.447187 14 16 11 0.298528 79 2346 80 3435 81 3003
5651 -2.43478 0.0781651 0.491636 43 55 31 0.218092 79 3984 80 3487 81 3077 82 2870
7497 -2.11835 -0.193402 0.453508 26 36 25 0.309756 86 2880 87 2986 88 1786 89 891 90 969
12507 1.36083 -0.345083 0.75164 75 101 53 0.421302 126 1091 127 1118 128 1410
11442 0.602496 -0.353198 0.788858 60 90 28 0.410972 115 111 116 801 118 676 119 664 120 544 121 633 122 759 123 128
5652 -2.55645 0.0977735 0.504498 66 84 47 0.298187 79 3373 80 3512 81 3097 82 2883 83 2730 84 2884 85 2683 86 3193 87 3307
5653 -2.55647 0.0978909 0.504777 66 84 47 0.206978 79 3374 80 3513 81 3098 82 2884 84 2885
11628 0.579841 -0.356767 0.801342 170 195 103 0.138851 116 804 117 891 118 1271
9967 -0.925738 -0.296477 0.609829 108 143 61 0.497189 102 1866 103 1646 104 2062
13050 2.21578 -0.00104028 1.44987 35 50 22 0.525682 134 1015 135 1528 136 1248 138 1287 140 1268 142 1713 144 1343
5654 -2.57474 0.123786 0.510114 177 133 34 0.264975 79 3398 80 3532 81 3117 78 2141 82 2914
5656 -2.32912 0.128017 0.499197 20 31 24 1.01951 79 3399 80 3537 81 3124 82 3478 83 2062
5657 -2.57368 0.137767 0.504797 32 31 10 0.370804 79 3406 80 3543 81 3126 82 2923 85 2732
5658 -2.59588 0.141845 0.481164 161 195 85 0.506428 79 3417 80 3550 82 2928 84 3479 85 3307 86 3828
6974 -2.19438 -0.0886249 0.399243 254 255 134 0.332184 84 3312 85 3521 86 4056 87 3714 88 3735 89 2828 90 3230
5659 -2.6154 0.138998 0.453967 26 39 19 0.451602 79 2514 80 3553 82 2930 81 3134 83 2069 84 2087
10115 -0.416778 -0.076128 0.62172 35 52 24 0.92971 103 3880 104 4468 105 3696 106 3553
7193 -1.83691 -0.0467644 1.07995 30 38 15 1.21902 85 3154 86 3673 87 3771 88 3768 89 3219 90 3619 91 3111 92 3882 93 3743 94 3416 95 3336 96 3568 97 2663 98 3921 99 4027
5664 -2.80818 -0.423795 0.283972 34 48 26 0.623397 79 3631 80 3755 81 3274 82 3065
13304 2.41476 -0.0712232 1.42246 28 32 20 1.24911 136 2469 137 2115 138 2427 139 1900 140 2388 141 2209
16937 5.13441 0.126264 1.76942 26 35 16 0.257941 174 2603 175 2422 176 2215 177 2200
5666 -2.39915 -0.401525 0.311314 47 50 31 0.701556 79 3637 80 3777 81 3281 82 3076
5667 -2.96994 -0.397549 0.369207 38 62 28 0.207813 79 3711 80 3836 81 3337
5671 -2.43968 -0.255925 0.386937 198 194 84 0.441555 79 4269 80 3915 81 3403 82 2527
5672 -2.43634 -0.250307 0.393813 28 33 22 0.414551 79 3773 80 3920 81 3408 82 3210 83 3013
5673 -2.42153 -0.247274 0.387362 20 26 14 0.679221 79 3774 80 3921 81 3409 82 3211 83 3014 84 3187
5674 -2.48856 -0.246136 0.379196 165 232 101 0.286832 79 3779 80 3925 81 3410 82 3212 83 3018 84 2473
10971 -0.353364 -0.135721 0.83726 73 105 40 0.133626 111 2252 112 2302 114 1893
5675 -2.68787 -0.233021 0.356305 19 25 14 1.02919 79 3050 80 3942 81 2740 82 2550 83 2401
5677 -3.00392 -0.247786 0.413904 23 30 17 0.190014 79 3816 80 3950 81 3435
5679 -3.01937 -0.24438 0.441896 31 33 18 0.469891 79 3827 80 3961 81 3450
7215 -2.08736 -0.0980963 0.555508 27 36 19 0.222827 85 3110 86 4060 87 4148
10144 -0.449146 -0.0374879 0.612741 254 254 156 0.794847 103 4175 104 4775 105 3982 106 3813 107 4035
9540 -0.541947 -0.0695478 0.758594 204 186 60 0.116253 100 1282 101 534 102 1351 103 1182
5680 -2.66628 -0.206967 0.373874 27 40 15 1.47143 79 3830 80 3965 82 3251
8387 -1.10742 0.142021 0.594466 69 100 40 0.41604 92 689 93 1664 94 1410
5682 -2.98413 -0.212632 0.427371 151 208 79 0.838219 79 3842 80 3974 81 3469 78 2665
5684 -2.68246 -0.190278 0.395886 74 96 52 0.399948 79 4308 80 3977 81 3476 82 3712 83 3064 84 3708
5686 -2.9261 -0.177914 0.472033 20 27 12 0.437736 79 4323 80 3987 81 3498
6724 -1.91613 -0.339522 0.650043 76 109 56 0.815367 83 2370 84 3150 85 2250 86 2785 87 2879 88 2512 89 2158 90 2516 91 2088 92 2838
5817 -2.15423 -0.0251954 0.510985 62 93 34 0.149538 80 432 81 388 82 341
17552 5.18447 0.170198 1.84736 254 255 69 0.0750923 178 3219 179 3059 180 3192 181 3142
5688 -2.2854 -0.098196 0.394482 100 146 74 0.452477 79 3885 80 4007 83 3121 84 3305 85 3098
15229 3.67112 0.0128688 1.52703 82 99 39 0.422677 161 866 162 397 163 1072
16313 4.52015 0.135118 1.62052 19 31 8 0.455706 169 2464 170 2740 171 2941 172 2905 173 2501
5690 -2.9608 -0.0818887 0.492446 23 31 18 0.538151 79 3918 80 4034 81 3543
9999 -0.531473 0.0809837 0.584693 144 193 75 0.437727 102 3568 103 3406 104 3986
7069 -1.9035 -0.193895 0.669868 54 80 32 0.439944 85 767 86 1074 87 1185 84 784 88 961
5691 -2.28795 -0.0486529 0.422003 47 64 31 0.624293 79 3920 80 4043 81 3976 82 3771 83 3157
5692 -2.32226 -0.047392 0.406908 110 151 57 0.620822 79 3927 80 4046 81 2953 82 2744 83 2585 84 3338 85 3142
9364 -1.37794 0.325081 0.644701 37 39 18 0.695791 97 2870 99 4294 100 3861
8341 -1.59352 -0.647546 1.13785 162 210 124 0.270961 91 54 93 105 96 43 94 83
5693 -2.32968 -0.0448517 0.406096 17 22 20 0.725566 79 4367 80 4049 81 3557 82 3369 84 3341 85 3150 86 3664 87 4179 88 3367
5695 -2.36454 -0.0438834 0.430125 40 47 13 0.339271 79 3931 80 4053 81 3562
16915 4.98265 0.318458 1.68968 48 69 33 0.282849 174 1189 175 1077 176 997
6961 -2.05184 0.310324 0.858366 235 171 44 0.674994 84 3885 85 3339 86 4196 87 4284 88 3880 89 3309 90 3720 91 3190 92 3975 93 3825 94 3502 95 3441
9149 -1.57848 0.346855 0.668543 255 229 62 0.242012 96 3949 97 3026 98 4382
5696 -2.36053 -0.0409216 0.419256 253 251 69 0.533676 79 4372 80 4058 81 2963 82 2753 84 1832 85 1673 86 1257
11313 0.462685 -0.246301 0.852911 52 56 24 0.259034 114 1817 115 1978 116 2263 117 1760
5697 -2.34136 -0.0370979 0.413408 39 43 20 0.289256 79 4373 80 4059 81 3571 82 2757
9385 -1.3836 -0.544004 1.00187 144 190 96 0.307525 99 129 100 151 101 131 102 162
5698 -2.29638 -0.0347072 0.42322 66 98 33 0.143192 79 3936 80 4063 81 3575
6005 -2.60696 -0.0697963 0.478264 93 128 62 0.0642848 80 3381 81 2935 82 2733
5700 -2.29867 -0.00633968 0.443081 33 44 19 1.01848 79 3952 80 4079 81 3599 82 3403 83 2641
5702 -2.40879 0.00538603 0.453892 45 59 28 0.501185 79 3298 80 4084 81 3605 82 3410 83 3205 84 3384 85 3214 86 3724 87 3821 88 3416
8285 -1.90048 -0.0715394 1.04398 17 24 15 0.484398 90 3251 92 3576 93 3412
5707 -2.76546 0.0686193 0.498996 27 37 20 0.330984 79 3982 80 4126 83 3241
9653 -1.14658 0.0680713 0.625412 78 107 52 0.445516 100 2827 101 3145 102 3090
5708 -2.3266 0.11213 0.500206 74 101 46 0.885726 79 4004 80 4146 81 3666 82 3467 83 2749 84 2053 85 1900 86 577 87 623
10363 -0.619934 -0.149274 0.71288 119 162 64 0.638831 105 3135 106 2472 107 2694 108 2264
5989 -2.72886 -0.129719 0.437724 34 45 21 0.94826 80 2260 81 2866 82 2666 83 2509
13770 2.19354 0.0672874 1.46146 86 120 44 0.162977 140 2074 141 1863 142 2101 143 1730 144 1646
5710 -2.56834 0.126488 0.509685 38 50 25 0.313348 79 4019 80 4155 81 3676 82 3477 84 3466 85 3296 86 3818
13537 1.85864 -0.321399 1.04582 58 72 37 0.197942 139 789 140 1543 141 1337
8268 -1.40454 0.253777 0.61555 45 59 24 0.758724 91 2433 92 3290 93 3559 94 3229 95 3148
5711 -2.95409 0.156043 0.345935 109 170 59 0.25819 79 4061 80 4183 81 3710
6943 -2.13958 -0.100602 0.537492 217 164 55 0.388093 84 3311 85 3106 86 2970 87 3078 88 2708
15478 4.14113 -0.333803 1.49347 90 121 58 0.123226 162 2657 163 2952 164 3025
13227 1.82172 0.133453 1.2446 22 28 14 0.553777 135 2106 136 2412 137 2056
5712 -2.32111 0.253945 0.603268 143 109 22 0.668588 79 4074 80 4199 81 3740 82 3529 83 3337 84 3515 85 3349 86 3877 87 3970 88 3544 89 3015 90 3437
18107 5.30975 0.0027805 2.31719 59 61 22 0.445155 185 2060 187 1562 188 1373
5714 -2.50481 0.267133 0.52935 26 40 24 0.507933 79 4092 80 4204 81 3749
13811 1.85581 0.0080179 1.1772 255 221 56 0.185191 140 2284 141 2224 142 2439
11243 0.536164 -0.364872 0.769352 56 82 34 1.05784 114 82 115 89 116 779
5716 -2.47726 0.302048 0.551167 28 30 19 0.645951 79 4110 80 4211 81 4083 82 3887 83 3671 85 3675 86 4204 87 4296 88 3903
5719 -2.31372 -0.776154 0.618732 79 114 88 0.868797 78 3020 80 4256 81 3791 82 3568
15110 3.95592 0.279379 1.54342 254 255 127 0.589097 158 2417 159 2733 160 2488 161 3294 162 3639 163 3943 164 4113
6884 -2.58452 0.154235 0.493034 82 87 31 0.265517 84 2092 85 1945 86 1545
5720 -2.73158 -0.45633 0.304756 35 43 26 0.318014 79 3617 80 4284 81 3815
10599 -0.0311256 0.150272 0.877046 98 125 54 0.260967 107 2286 108 1920 109 1636
13731 1.87148 -0.0745303 1.25574 32 44 24 0.49668 137 969 141 1498 143 1369 144 1315
5721 -2.75159 -0.447965 0.314269 68 96 48 0.0835857 79 4180 80 4288 81 3820
5725 -2.76987 -0.230025 0.356468 97 127 61 0.55054 79 4287 80 4399 81 3911 82 3232
7453 -2.31575 0.141207 0.51781 51 62 28 0.229986 86 2470 87 2574 88 2212 89 1844
8350 -1.89149 0.125052 1.1195 36 33 18 0.312144 92 670 93 684 94 575 95 1182 96 580
12448 0.985016 0.176157 0.757517 13 17 2 0.727734 125 1741 126 1821 127 1855
5726 -2.878 -0.246321 0.441542 236 176 52 0.408471 79 4294 80 4405 81 3915 82 3699 83 3494
11684 0.523902 -0.0493131 0.840911 14 20 10 0.302033 116 2804 117 3004 118 2529 119 2531
9087 -0.96135 -0.251665 0.569397 62 83 42 0.66841 96 2488 97 2236 98 3393
5728 -2.41255 -0.13754 0.392193 71 104 47 0.393034 79 4325 80 4431 81 3936 78 4035 82 3725 83 3532 84 3722 85 3498 86 4032 87 3684 88 3303
5729 -2.57321 -0.125495 0.476097 13 17 16 0.135673 79 4336 80 4443 81 3946
5731 -2.29143 -0.0918744 0.394606 19 28 12 0.513078 79 4341 80 4448 81 3954
5732 -2.30455 -0.0735821 0.40637 13 16 5 0.894937 79 4350 80 4457 82 3347 83 3133 84 3321
11068 0.329962 0.0821487 0.690347 73 96 39 0.561315 112 2436 113 2577 114 2009 115 2599 116 2889
15364 4.1642 -0.102368 1.54158 249 203 48 1.07703 161 3162 162 3374 163 3802 164 3981 165 3148
5733 -2.31175 -0.0475647 0.417739 17 19 16 0.527912 79 4364 80 4474 81 4213 82 4035
16451 4.9837 0.193007 1.63486 15 14 10 0.608785 170 3261 171 3326 172 2932 173 2552
5735 -2.41197 -0.0309391 0.418507 21 29 16 0.295747 79 4379 80 4483 81 3981 82 3782 83 3179 84 3360
5740 -2.5745 0.130777 0.505751 176 129 35 0.11917 79 4433 80 4537 81 4043
8013 -1.38812 -0.518575 0.990419 252 255 152 0.561987 88 3954 89 3364 90 3763 91 3228 92 4006
5741 -2.33045 0.152641 0.508078 121 157 81 1.3741 79 4441 80 4544 81 4047 82 3490
5743 -2.71758 0.210062 0.529095 27 39 16 0.357349 79 4469 80 4567 81 3719
17754 5.26327 0.127727 1.94561 30 34 17 0.48307 180 3313 181 3259
5745 -2.93934 0.219076 0.328315 126 184 90 0.43297 79 4500 80 4592 81 4080
12736 1.46833 -0.226311 0.805735 46 71 31 0.879388 129 1425 130 1503 131 1563 132 1899
5748 -2.75399 -0.229311 0.33467 36 48 24 1.22894 79 4614 80 4727 81 4165
5749 -2.64465 -0.198637 0.388154 28 37 22 0.345284 78 3750 79 4623 80 4734 81 4174 82 4169
5750 -2.69787 -0.147833 0.418219 15 24 14 0.694939 79 4635 80 4744 81 3937
5751 -2.32115 -0.0763994 0.419483 16 17 10 0.479108 79 4640 80 4755 81 4201 82 4026
5752 -2.93691 -0.0899114 0.490467 24 39 18 0.496215 79 4643 80 4756 81 3966 82 3760
14622 3.26216 0.175186 1.76166 46 63 32 0.540227 151 1321 152 1299 153 1048 154 1421
5753 -2.31225 -0.061513 0.414992 13 21 10 1.57548 79 4641 80 4758 81 4206 82 4199 83 3800
17483 5.1486 0.135825 1.77346 119 129 49 0.101219 178 2557 179 2412 180 2543
5755 -2.58619 -0.0305472 0.539479 114 82 25 0.617884 79 4811 80 4766 81 4384 82 4204
5759 -2.75964 0.0642129 0.523023 17 18 20 0.955628 79 4658 80 4779 81 4237 82 4059
6238 -2.64182 -0.337693 0.302516 81 73 28 0.532031 81 1751 82 702 83 662
5760 -2.2886 0.118654 0.511671 18 19 11 0.827114 79 4670 80 4794 81 4246 82 4069 83 3845 84 4055 85 3829 86 4372
6785 -2.09757 -0.189813 0.462036 253 255 69 0.298664 83 3940 84 4146 85 3914 86 4565 87 4650 88 4263
6874 -2.55167 0.0473374 0.467644 35 53 22 0.173738 84 1954 85 1806 86 2343
5761 -2.65875 -0.354582 0.299908 30 31 23 0.564612 79 4746 80 4861 81 4315 78 3967 82 4129 84 4244
7249 -2.42134 -0.121175 0.400153 252 223 60 0.252954 85 4048 86 4570 87 4657 88 4271
11023 0.45325 -0.259273 0.839814 90 155 55 0.0816239 112 204 113 258 114 180
5762 -2.97481 -0.267223 0.447818 30 39 22 0.219155 79 4768 80 4888
6925 -2.55645 0.149236 0.511493 26 33 17 0.140045 84 2089 85 2742 86 2481
5764 -2.65776 -0.215845 0.353652 26 30 15 0.438098 79 4918 80 4897 81 4342 82 4160
5767 -2.65001 -0.137407 0.434876 25 32 19 0.290152 79 4792 80 4917 81 4364 83 3950
7746 -1.99172 -0.250195 0.562937 25 37 24 0.965975 87 4096 88 3679 89 3136
5768 -2.29981 -0.0715664 0.399809 15 18 9 0.568818 79 4802 80 4925 81 4203 82 4030 84 4007
7681 -2.48778 0.296336 0.543928 30 28 15 0.097402 86 4203 87 4293 88 3901
7152 -2.13451 -0.0127197 0.557769 30 32 13 0.36634 85 2552 86 3100 87 3797 88 2821
5769 -2.36626 -0.0206128 0.424397 18 15 8 0.772113 79 4812 80 4932 81 4386 82 4205 83 3815 84 4023 85 3802 86 4347 87 4426 88 4028
7838 -1.99319 -0.207965 0.593103 84 108 50 0.376059 87 2993 88 2607 89 2228 90 2599 91 2176 92 2965
5770 -2.30663 0.179445 0.524338 28 44 15 0.700449 79 4978 80 4962 81 4547 82 4365 83 3988 84 4211
10584 -0.478151 -0.222264 0.720208 133 181 86 0.155559 107 1023 108 1560 109 684
5771 -2.76704 -0.449456 0.321333 27 33 23 0.621072 78 4285 79 4878 80 5009
5772 -2.80022 -0.223684 0.372547 247 255 187 0.274886 79 4921 80 5045 81 4486 82 4311 83 4050
5773 -2.94174 -0.11897 0.485107 20 31 15 0.799369 79 4943 80 5068 81 4506
5775 -2.36147 -0.0504196 0.412093 26 46 20 1.0411 79 4948 80 5074 81 4514 82 4338 83 4078 84 4300 85 4056
5779 -2.29366 -0.0197506 0.44329 255 219 60 0.0958155 79 4953 80 5079 81 4521 82 4342
17422 5.25426 0.412753 1.97601 36 44 19 0.102623 178 1714 179 1679 180 1738
5781 -2.30327 0.12382 0.507014 254 254 114 0.239194 79 4972 80 5095 81 4539 82 4357 83 4104 84 4320 85 4083 86 4610 87 4694 88 4302 89 3659
5784 -2.30661 0.160669 0.519663 252 255 124 0.328331 79 4976 80 5102 81 4545 82 4362 83 4110 84 4324 85 4087 87 4695 88 4304 89 3703
7415 -1.50948 -0.0917832 0.960865 29 43 20 0.866241 86 2156 87 2270 88 1068
7840 -2.26215 -0.169812 0.353422 70 93 43 0.179885 87 2115 88 2610 89 2225
6756 -2.1727 -0.241546 0.382928 45 44 24 0.269588 83 3477 84 3659 85 3456
13679 2.65858 -0.56765 1.43217 194 202 116 0.547991 140 910 141 832 142 900 143 1161 144 1165
13777 1.90171 0.109528 1.35457 33 32 8 0.637615 140 1800 141 1884 144 1670 145 1737
5785 -2.30695 0.160236 0.5178 252 255 124 0.170671 79 4977 80 5103 81 4546 82 4363 83 4111
9741 -0.534384 -0.0640351 0.770367 214 183 56 0.152074 100 3916 101 4247 102 4092
5786 -2.40547 -0.394099 0.330884 44 53 34 1.41156 79 4995 80 5123 81 4452 82 4279
17235 5.28631 0.381377 1.99279 46 41 21 0.415179 177 1752 178 999 179 1001 180 1072
5788 -2.59487 -0.393769 0.313106 26 33 25 1.30699 79 4998 80 5127 81 4454
13325 1.94138 -0.204934 1.09651 66 89 44 0.119066 137 511 138 564 139 490
6695 -1.98843 -0.099087 0.610909 31 40 23 0.529554 83 2530 84 2651 85 2438 86 2977 87 3088
9683 -0.806255 0.0902521 0.623624 37 58 19 0.0344681 100 3317 101 3668 102 3570
14135 2.60402 0.105872 1.31233 208 162 40 0.182895 142 2496 143 2038 144 1952
14655 3.35123 -0.0442866 1.44432 39 54 30 0.589403 151 2462 152 2482 153 2162
5789 -2.65205 -0.333265 0.304929 28 35 26 0.675377 79 5005 80 5130 81 4581 82 4396 83 4149
7121 -2.03682 0.302282 0.864421 56 81 39 1.42377 85 1975 86 2545 87 2629 88 2257 89 1911 90 2236 91 2449 92 2646 93 2563 94 1456 95 2119
8741 -1.23298 0.122875 0.772097 35 64 23 0.403073 93 3053 94 2691 95 2603
5791 -2.3625 -0.1737 0.344245 254 252 134 0.544067 79 5017 80 5151 81 4599 82 4421 83 4197 84 4400 85 4136
12489 1.32967 -0.329285 0.762024 43 54 39 0.557532 126 670 127 322 128 606
16359 4.59832 -0.0833145 1.612 13 18 14 1.49703 169 3798 170 3463 171 3781 172 3730 173 3769
5793 -2.35552 -0.0333228 0.414969 253 254 116 0.660889 79 5026 80 5157 81 4608 82 4431 83 4170
8111 -1.39631 -0.497746 0.980984 43 57 33 0.771859 89 2693 90 3512 91 3003 92 3398
6753 -2.34419 -0.778713 0.598041 255 255 167 0.835933 83 3377 84 3562 85 2850
14975 3.8713 -0.24853 1.69617 20 31 16 0.354686 157 1680 158 1889 159 2128
5794 -2.35552 -0.0333228 0.414969 253 254 116 0.660889 79 5025 80 5158 81 4607 82 4430 83 4169
5795 -2.4326 0.0165531 0.480125 50 67 38 0.403034 78 4444 80 5161 81 4615 82 4438
5800 -2.6564 -0.581215 0.383396 50 63 33 1.83853 78 4515 80 5252
5801 -2.72416 -0.188546 0.357703 41 54 28 0.500263 79 5130 80 5257 81 4715
11280 0.469711 -0.233572 0.834354 33 47 24 0.227349 114 1255 115 1394 116 1709
5806 -2.33481 0.273034 0.615293 18 21 11 1.46795 79 5086 80 5215 81 4643 82 4469 83 4212
8951 -1.08991 0.227887 0.675039 23 33 9 0.308499 93 3960 94 3736 95 3587 96 3784
8269 -1.51908 0.246132 0.598041 53 62 19 0.657439 91 2442 92 3293 93 3145 94 2808 95 2706
14061 2.69793 -0.182143 1.18443 81 116 50 0.09624 141 976 143 865 144 839
8229 -1.40483 0.331388 0.656547 35 44 27 1.30509 91 3588 92 4325 93 4196 94 3879 95 3834 96 4021 97 3103 98 4481 99 4532 100 4095
9668 -1.04478 -0.192357 0.550517 225 252 132 0.375531 100 3148 101 3468 102 3398 103 3592
5808 -2.1918 -0.46555 0.366171 46 68 28 0.663376 80 87 81 57 82 43
5810 -2.63698 -0.3089 0.323803 38 45 27 0.406736 80 275 81 218 82 158
5811 -2.85526 -0.257472 0.406522 114 114 30 0.387758 78 272 80 319 81 266 82 217
14604 3.21527 -0.134094 1.30862 102 129 66 0.301013 151 606 152 567 153 400 154 1106 155 736 156 516 157 555 158 588
8189 -1.39098 -0.535527 1.00106 59 72 36 0.98522 90 3069 91 2565 92 3388 93 3630 94 2909 95 2823
5814 -2.67387 -0.184227 0.393394 29 41 14 0.446789 79 373 80 353 81 303
5815 -2.68703 -0.170883 0.404619 45 63 27 0.162653 80 360 81 311 82 255
6852 -2.47758 0.264234 0.55187 43 59 30 0.22814 84 1217 85 1183 86 2566
5816 -2.34146 -0.0299754 0.404998 76 99 26 0.00764532 80 1295 81 386
9954 -0.807701 -0.261879 0.649281 69 92 48 0.229674 101 274 103 909 104 1146 105 899
5821 -2.55262 0.048704 0.459909 138 155 77 0.15007 80 498 81 442 82 1082
16486 5.04773 0.0382444 1.63125 78 114 42 0.41549 171 795 172 784 173 803 174 905 175 847
5822 -2.09854 0.278871 0.841435 18 30 17 0.283617 80 1534 81 525 82 1211
13555 1.88742 0.0892027 1.33053 16 26 15 0.641337 137 1024 140 1788 138 798 141 1544 142 2117
5824 -2.60562 -0.647537 0.39916 146 181 210 0.323047 80 651 81 592 82 506
9849 -0.777461 -0.191723 0.650548 32 46 28 0.678936 99 2131 102 2806
16956 5.31838 -0.11211 1.75847 59 62 26 0.961517 174 3003 175 2814 176 2007 177 1961 178 1869 179 1799 180 1876 181 1865
5825 -2.19115 -0.461533 0.362142 90 115 60 0.43596 80 739 81 663 82 550 83 577
5826 -2.69008 -0.353456 0.210223 161 208 113 0.0899008 80 160 81 753 82 634
9254 -0.957029 -0.243815 0.598054 34 42 25 0.679957 97 3033 98 4389 99 4479 100 4050 101 4300 102 4146 103 4089 104 4569
10475 -0.532066 0.0809588 0.583937 183 227 91 0.262939 106 2635 107 2887 108 2473
5830 -2.62314 -0.362864 0.310859 25 36 19 0.499989 79 846 80 944 81 820 82 689
18002 5.26107 -0.468686 2.37978 75 102 51 0.2394 185 572 186 1429 187 1219 188 1084
6386 -2.05813 0.29072 0.827015 28 40 20 0.647817 81 3727 82 3516 83 3327 80 4576
5831 -2.65384 -0.333896 0.289472 20 40 20 0.554036 80 1960 81 851 82 1596
15151 4.01547 -0.321461 1.6161 42 56 29 0.690415 159 2756 160 2525 161 3338
11133 0.323469 0.278582 0.785968 62 81 36 1.32528 112 3468 113 3630 114 3034
5832 -2.28304 -0.293652 0.280647 239 253 123 0.254602 80 994 81 867 82 710
16373 4.47171 0.095944 1.64122 35 48 22 1.11854 169 3986 170 3653 171 3949
5834 -2.48537 -0.285001 0.388247 24 37 20 0.324306 80 299 81 915 82 176
11794 0.528666 -0.133359 0.82051 16 22 14 1.39386 117 3635 118 3227 119 3221
5835 -2.85828 -0.29751 0.386034 31 50 30 0.240022 80 2077 81 925 82 747
8502 -1.09408 0.221618 0.671844 23 23 11 0.510429 92 3662 93 3527 94 3199 95 2665 96 2909
6085 -2.74177 0.218543 0.553593 77 110 53 0.438461 80 3606 81 3721 82 3511
5836 -2.73596 -0.256247 0.340155 51 65 35 0.176413 80 1071 81 943 82 763
15921 4.59108 0.250566 1.65299 50 76 30 0.547281 165 2579 166 3333 167 2204 168 2633
5838 -2.46205 -0.234913 0.382635 52 80 35 0.50921 77 914 81 965 82 1720
5841 -2.68403 -0.179011 0.400856 42 51 32 0.143803 79 1141 80 1155 81 1024
5842 -2.94107 -0.194428 0.453978 84 103 55 0.201196 80 355 81 1028 82 853
7699 -2.30283 0.246969 0.623493 17 13 4 0.63198 86 4394 87 4482 88 4076 89 3479 90 3894
15230 4.05593 0.206154 1.52211 68 96 44 0.539645 161 369 162 483 163 447 164 447
5847 -2.62936 -0.155662 0.43419 56 66 42 0.100751 80 1180 81 1051 82 876
5848 -2.62936 -0.155662 0.43419 56 66 42 0.100751 80 1181 81 1052 82 875
5850 -2.71427 -0.143421 0.449156 105 120 61 0.335965 80 1197 81 1070 82 890 83 860 84 826
5851 -2.72821 -0.133927 0.434712 117 136 61 0.843349 80 374 81 1077 82 898 83 872 84 839
5853 -2.65445 -0.128624 0.437824 29 39 25 0.315555 80 381 81 1084 82 904 83 878
9013 -1.46018 -0.497204 1.10195 66 74 40 0.955219 95 3249 96 3461 97 2223 98 3383
5854 -2.65056 -0.126254 0.436037 68 83 44 0.3336 80 1209 81 1085 82 907 83 880 84 843
10837 -0.41119 -0.0582559 0.614601 25 32 21 0.768435 109 3018 110 3286 111 3224 112 3152
5855 -2.21325 -0.0915711 0.396758 72 96 49 0.656683 80 1229 81 1103 82 927 83 906 84 1749
5856 -2.20062 -0.086857 0.400727 73 76 45 0.742729 80 396 81 1105 82 1870 84 1758 83 1733 85 1600 86 2106 87 2235 88 2716 90 3234
5857 -2.87691 -0.111674 0.497408 20 33 16 0.475379 80 2293 81 1109 82 937
5859 -2.33319 -0.0554105 0.421361 72 99 59 0.106949 80 1260 81 1133 82 968
13222 1.61635 -0.0453011 0.971901 157 189 56 0.294658 135 2080 136 2389 137 2023
8094 -1.36176 -0.462739 0.978706 252 253 125 0.564809 88 3187 90 3094 91 2034
11749 0.69348 -0.27337 0.674391 105 136 59 0.40259 117 2299 118 1933 119 1909
5860 -2.32667 -0.054162 0.413862 47 70 25 0.135177 80 1261 81 1135 82 969
6037 -2.11033 0.432542 0.775851 46 54 34 0.54651 80 3649 81 3194 82 2987 83 2828 84 2996 85 2820
5862 -2.57022 -0.0601174 0.474151 38 54 22 0.0802996 80 1266 81 1140 82 325
13515 2.65949 -0.570327 1.43771 176 203 106 0.617609 139 741 140 911 141 831 142 899 143 1162
5864 -2.32332 -0.0404782 0.405195 63 88 28 0.19734 80 1282 81 1158 82 986 83 967 84 936 85 924 86 1259 87 1386 88 1124
5866 -2.40878 -0.0244267 0.414327 111 143 64 0.137096 80 1306 81 1182 82 1007 83 980
18003 5.26737 -0.459448 2.4059 45 61 43 0.194325 185 1203 186 1440 187 1235
5871 -2.57812 0.0512804 0.459123 181 209 127 0.113616 80 1399 81 1283 83 1088
8092 -1.35053 -0.529786 0.992434 62 81 49 0.211445 89 2093 90 3068
5872 -2.76335 0.0899733 0.49362 57 60 17 0.139816 80 2490 81 1318 82 1122
5878 -2.62769 0.150792 0.448301 54 65 37 0.027119 80 1498 81 1370
5880 -2.63994 0.174128 0.454958 79 99 50 0.215807 80 1526 81 1393 82 1198
10139 -0.387586 0.167308 0.666442 252 254 110 0.46398 103 4135 104 4734 105 3914 106 3777 108 3494 107 4043 109 3248 110 3522 111 3437 112 3358
5882 -2.69247 0.430764 0.72686 82 94 56 0.240116 80 1562 81 1426 82 1237 83 1247
10013 -0.50211 0.0507561 0.62205 40 46 21 1.12991 102 3992 103 4041 104 4623 105 3823 106 3575 107 3803
12574 1.0467 -0.0491997 0.678499 255 255 216 0.24306 126 2145 127 2138 128 2073 129 1990
5883 -2.11711 0.43117 0.701964 220 193 83 0.705372 80 1567 81 1428 82 1246 83 500 84 460 86 1615 85 448 87 1701 88 1384 89 571 90 646
17665 5.2863 0.404554 1.99216 80 104 55 0.168316 179 2523 180 2649 182 2473 183 2188 184 2976
7980 -2.09336 -0.0952893 0.543501 61 84 37 0.267696 88 1044 89 1623 90 1885 91 1638
6921 -2.27521 0.11474 0.498403 118 150 77 0.334211 84 2910 85 2712 86 3221 87 3338 88 2968 89 2474 90 2854
5885 -2.66875 -0.648587 0.366478 93 128 86 0.805051 80 1582 81 1446 83 2166
13509 1.88428 0.0872977 1.32139 78 106 44 0.401328 137 648 140 759 141 1167 142 1318
14483 2.73903 -0.439632 1.41906 248 255 160 0.180816 149 2395 150 2087 151 2314
13683 1.93302 -0.186292 1.08774 91 129 45 0.126953 140 1086 141 1000 142 1097
5887 -2.68453 -0.526059 0.329719 136 174 87 0.138268 80 1636 81 1506
9341 -1.01396 0.20918 0.595213 165 189 66 0.484698 98 3677 99 3811 100 3401 101 3744 102 3208
5888 -2.1761 -0.474531 0.366122 109 109 63 0.177301 80 1666 81 1522 82 1361
5889 -2.18152 -0.46925 0.363521 189 172 68 0.668023 80 1671 81 1531 82 1366 83 2212 84 2259 85 2079 86 2638 87 2722 88 2346 89 2009
5890 -2.57907 -0.411525 0.299506 104 140 70 0.521536 80 1747 81 1599 82 1437 83 1370
8122 -2.19141 0.322857 0.887642 134 90 17 0.217907 89 3312 90 3722 91 3197
5891 -2.59289 -0.403739 0.298285 77 86 38 0.379937 80 839 81 1622 82 1462
12436 1.26935 -0.223691 0.85601 69 90 51 0.294688 125 1598 126 1545 127 1203
8843 -2.06417 0.11274 0.934093 54 70 34 1.15726 92 4335 93 4190 94 3868 95 3828
5893 -2.69096 -0.358545 0.213647 66 96 54 0.0991364 80 1790 81 1637 82 1476
5898 -2.65538 -0.339917 0.293312 127 151 71 0.0920212 80 1949 81 1746 82 1593
9960 -0.466807 -0.0147307 0.632434 47 67 25 0.498676 102 2257 103 1242 104 620
6440 -2.612 0.0454586 0.46106 25 29 11 1.10344 81 4401 82 4221 83 3830
8133 -1.5008 0.202209 0.655848 251 254 158 0.961307 89 3599 90 3995 91 3446
13356 2.41604 0.323224 1.37811 66 97 40 0.536796 136 1863 137 1752 138 1864 139 1694 140 1889 141 1644 142 1861
5899 -2.56216 -0.357365 0.390602 14 25 17 0.389286 80 993 81 1758 82 1603
6405 -2.0514 0.282837 0.817321 64 92 43 0.181395 81 4059 82 3862 83 3655
5901 -2.2807 -0.292541 0.28519 192 171 66 0.0863359 80 1981 81 1763 82 1606
12369 0.853493 -0.121877 0.608537 35 47 29 0.608329 124 1413 125 1617 126 1579
5902 -2.63982 -0.318709 0.317428 117 137 72 0.270001 80 1989 81 1771 82 1610 83 1456 84 1464
15822 4.50425 0.252148 1.6626 21 33 23 0.783009 164 3416 165 2577 166 3332 167 2716
5905 -2.62936 -0.308413 0.318491 23 29 27 0.499219 80 3060 81 1787 82 1621
5906 -2.87997 -0.278621 0.399476 75 99 47 0.0854161 80 1073 81 1839 82 1692
5910 -2.79737 -0.2393 0.37069 83 109 48 0.193199 80 2148 81 1884 82 793
12351 1.33796 -0.303379 0.757424 121 103 39 0.668381 124 894 125 772 126 685 127 708 128 626 130 634 131 575 133 760
5912 -2.29285 -0.173351 0.377498 49 65 36 0.350876 80 3239 81 1949 82 2597 83 2444 84 2539
13928 2.72072 -0.170095 1.21816 113 96 31 0.197131 141 1416 142 1579 143 1283 144 1246
15972 4.61492 -0.514155 1.78856 162 165 156 0.605319 165 3355 166 4094 167 3571
7802 -1.98811 -0.550715 0.688398 239 255 220 0.104675 86 1737 87 1825 88 1503
5914 -2.94162 -0.204359 0.45814 18 26 11 0.253824 80 2220 81 1966 82 841
5915 -2.63675 -0.17327 0.441869 28 39 22 0.127762 80 2236 81 1983 82 1797
5916 -2.65845 -0.159317 0.425948 53 70 34 0.165673 80 2243 81 1996 82 871
9778 -0.603873 -0.452422 0.819484 113 131 73 0.421433 101 902 102 898 103 740 104 1000
5917 -2.68711 -0.134624 0.440804 48 67 34 0.190905 80 3300 81 2030 82 1835
5918 -2.42649 -0.0982612 0.404957 79 97 54 0.273158 78 1945 80 2274 81 2052 82 1866
5920 -2.22106 -0.0833724 0.40725 60 74 45 0.739265 80 2290 81 2059 82 1881
5921 -2.22106 -0.0833724 0.40725 60 74 45 0.739265 80 2291 81 2060 82 1882
6039 -2.34919 -0.829479 0.635562 243 253 240 0.506689 80 2687 81 3216 82 2242
12401 1.07546 0.24206 0.919128 16 19 11 0.644384 124 2487 125 2245
5922 -2.40242 -0.0793951 0.437588 22 31 12 0.421439 80 1246 81 2068 82 1894
5923 -2.39832 -0.0762892 0.436524 44 62 31 0.0944769 80 2308 81 2072 82 2713
14703 3.62909 0.0958143 1.80992 19 16 7 0.750627 153 1650 154 2071 155 1507
6427 -2.59049 0.043532 0.444346 130 188 75 0.510959 81 4015 82 4056 83 3833
5926 -2.55179 -0.0716851 0.460033 78 105 50 0.403902 80 1253 81 2081 83 1766 84 1802
5928 -2.61019 -0.0649753 0.470933 29 48 23 0.0801838 80 2327 81 2090 82 1916
6143 -2.27682 -0.0347284 0.413893 174 238 93 0.380119 80 4762 81 4216 82 4037 81 4217 83 3807
5929 -2.59057 -0.0595088 0.489233 37 49 25 0.372141 78 2001 80 2336 81 2097
5932 -2.56985 -0.0225143 0.548562 11 16 9 0.297965 80 2373 81 2137 82 1968 83 1848 84 1871
5933 -2.39186 -0.0181667 0.425793 75 101 39 0.516076 78 2025 81 2140 82 1020 83 988
17957 5.25904 -0.311898 2.45472 93 127 64 0.237932 184 2229 185 1926 186 2156 187 1922
5934 -2.56693 -0.0177874 0.533865 33 45 25 0.628483 80 2376 81 2145 82 1979 83 1854 84 1876
5935 -2.35451 -0.0139415 0.418433 69 90 48 0.182571 80 1313 81 2146 82 1981
5936 -2.30231 -0.0104329 0.443259 101 127 64 0.675844 80 2380 81 2153 82 1025 85 308
5938 -2.41548 -0.011508 0.418286 140 176 84 0.268547 80 2382 81 2156 83 1861 84 1882 85 1729 86 2265 87 2390 88 2044
5941 -2.40099 0.00309319 0.447869 43 55 31 0.13082 80 2395 81 2175 82 2018
14512 3.32947 0.13291 1.61865 52 74 36 0.188378 150 1065 151 1295 152 1280
5942 -2.48583 0.0737205 0.512908 82 72 23 0.132529 80 2462 81 2246 82 2079
10684 -0.0476689 0.0364011 0.955396 24 36 15 1.27764 107 3799 108 3280 109 3034 110 3297 111 3242
5943 -2.77596 0.0775459 0.493351 53 63 28 0.193097 80 1425 81 2256 82 1110 83 1120
5945 -2.30987 0.101144 0.498944 18 27 12 0.491462 79 2452 80 2496 81 2279 83 2022 84 2035 85 1881 86 2405 87 2521 88 2167
8587 -1.1334 0.314391 0.711507 255 252 80 0.553097 92 4221 93 4122 94 3795 95 3741 96 3941 97 3018
5946 -2.32315 0.102492 0.491837 83 103 47 0.252705 80 2500 81 2287 83 1145
11406 0.51004 -0.10839 0.844894 21 29 17 0.37506 114 2991 115 3184 117 3656
16450 4.98131 0.184882 1.62233 123 117 39 0.489149 170 3063 171 3322 172 3303
5947 -2.58898 0.0926073 0.407069 37 56 26 0.160222 80 2502 81 2291 82 2116
15615 4.17016 0.0302823 1.57751 30 44 18 0.187216 163 1069 164 1926 165 884
5948 -2.55391 0.115781 0.512046 45 62 27 0.389526 80 2515 81 2302 82 2907 83 2046 84 2909 85 2709 86 3215 87 3332
5950 -2.28959 0.175858 0.531806 74 119 54 0.0443824 80 2570 81 2327
10390 -0.111106 -0.246212 0.937626 28 33 16 0.361295 105 3463 106 3314 107 3550 108 3068 108 3240 109 2787
15414 4.04568 0.204935 1.51311 34 50 21 0.391126 162 1139 163 1149 164 1187
5952 -2.30985 0.197733 0.531672 46 63 27 0.649984 80 589 81 2345 82 2170
16459 4.37628 -0.0245478 1.61496 12 18 11 0.125391 169 3545 170 3225 171 3493
5953 -2.61805 0.188739 0.477309 18 26 13 0.355684 80 2594 81 2347 82 2172 83 2096 84 2111 85 1966
5954 -2.61507 0.193761 0.479147 60 89 34 0.0260471 80 2599 81 2350 82 2175
16119 4.71647 0.0654913 1.54373 44 62 23 0.504831 167 3355 168 3634 169 3556
7968 -1.60305 0.088135 0.616085 34 51 15 0.529376 88 1259 89 1116 90 1212
5955 -2.61577 0.205437 0.473956 32 52 23 0.334691 80 3618 81 2358 82 2188
15361 4.23844 0.196592 1.63676 111 163 70 0.114291 161 2940 162 3264 163 3573 164 3714
5957 -2.51381 0.26767 0.536102 52 61 36 0.266276 80 2636 81 2372 82 1228 83 1234
5958 -2.49731 0.269123 0.533473 159 205 82 0.277616 80 2637 81 2373 82 2203 83 2820 84 3524 85 3363
5959 -2.96754 0.284421 0.463861 45 55 28 0.26375 80 2651 81 2387 82 2209
5960 -2.71908 0.427665 0.734832 65 70 40 0.318622 80 2661 81 2394 82 2212 83 2144
8177 -1.95426 -0.321659 0.645499 223 171 64 0.399459 90 1723 91 2115 92 2869 93 2764 94 2419 95 2350
5961 -2.13403 0.441485 0.703168 131 143 84 0.525571 80 2670 81 2402 83 2157 84 1246 85 2030 86 2607 87 2686 88 1386
11611 0.58568 0.065725 0.742073 253 255 197 0.131409 115 3123 116 3483 117 3599 118 3196
13829 2.32376 0.00410917 1.49288 33 42 25 0.631354 140 2553 141 2378 142 2565 143 2153
7540 -2.12397 0.117075 0.62035 67 96 29 0.128416 86 3203 87 3314 88 2947
5964 -2.7083 -0.493733 0.316138 32 35 29 0.419887 80 2741 81 2461 82 2285
9318 -1.37348 -0.541551 1.02564 72 95 53 0.352189 98 1902 99 2803 100 3049 101 3382
5966 -2.38574 -0.404507 0.298709 70 92 54 0.460662 80 2826 81 2493 82 2321 83 2229 84 3066 85 2898
5969 -2.40429 -0.379737 0.308398 48 65 37 0.391326 80 2899 81 2540 82 2381
10323 -0.867718 -0.19696 0.603471 68 94 47 0.145185 105 337 106 338 107 1026
16284 4.53153 0.342491 1.69515 98 110 52 0.144872 169 2605 170 1689 171 1057
17565 5.2742 0.128704 1.94627 27 33 19 1.27751 177 3745 179 3174
5970 -2.26143 -0.342895 0.281755 61 85 52 0.17913 80 2943 81 2555 82 2394
13618 2.26312 -0.505366 1.44263 64 86 48 0.102402 140 44 141 37 142 63
8797 -1.94259 -0.349364 0.638816 44 56 36 0.561853 93 3659 94 3344 95 3257
17617 5.322 0.325491 2.01268 21 34 5 0.343382 179 1624 180 1688 181 1659
5971 -2.80051 -0.378998 0.29511 50 62 42 0.675138 78 1507 80 2948 81 2567 79 2857 82 2406
5975 -2.61686 -0.295895 0.32187 31 31 19 0.24255 79 2958 80 3863 81 2654
13556 2.23792 0.157504 1.54257 44 63 26 0.177974 138 1367 140 1814 143 1470 145 1463
5977 -2.86552 -0.292696 0.38929 138 178 81 0.254487 80 3894 81 2697 82 2515
18040 5.25338 -0.327956 2.46215 35 45 29 0.64659 185 2365 186 2614 187 2340
5978 -2.73386 -0.257611 0.330072 30 47 28 0.617092 80 3905 81 2707 82 3209
5979 -2.42299 -0.256454 0.378329 25 36 23 0.72937 80 2101 81 2708 82 3208
11483 0.600603 -0.304502 0.814675 120 163 85 0.15177 115 1308 116 1602 117 1678 118 1316 119 1323
5980 -2.4255 -0.253726 0.385952 65 91 46 0.148961 80 3136 81 2712 82 2530 83 3008
9842 -0.959913 -0.224816 0.591289 116 170 73 0.192687 101 2797 102 2752 103 2563 104 3111 105 2511
7024 -1.85997 0.0361333 1.09071 21 25 15 0.92005 84 4189 85 3951 86 4498 87 4584 88 4184 89 3572 90 3981 91 3317 92 4190 93 4044 94 3622 95 3558 96 3757 97 2832
5981 -2.63684 -0.236226 0.349566 73 97 55 0.0712836 80 3164 81 2727 82 2545
7719 -2.2613 0.0123329 0.471157 21 27 16 1.0962 86 4352 87 4587 88 4186 89 3574 90 3982
14992 3.92324 -0.363686 1.67596 76 103 58 0.211204 157 1632 158 2098 159 2359
5983 -2.93774 -0.255636 0.44761 44 61 34 0.424452 80 3194 81 2756 82 2562
9923 -0.97424 -0.119041 0.593257 253 254 86 1.23779 101 4128 102 4087 103 4017 104 4597 105 3805
5984 -2.97488 -0.248506 0.436036 53 54 20 0.270831 80 3953 81 2767 82 3238
6409 -2.04145 0.439236 0.747967 40 42 20 1.10889 81 4089 82 3893 83 3351 84 3540 86 3917 87 3989 85 2830 88 3576 90 3013 91 2505 92 3729 93 3205 94 2859
5985 -2.27528 -0.16481 0.348914 85 120 56 0.0747769 80 3247 81 2808 82 3275
5986 -2.28417 -0.1567 0.370461 59 62 26 0.0563476 80 3261 81 2821 82 2616
16262 4.44038 -0.0477064 1.69139 51 62 30 0.823922 168 4033 169 3984
5990 -2.53872 -0.126633 0.463593 49 69 34 0.995571 80 3305 81 2867 82 3736
5991 -2.28406 -0.105749 0.398776 33 48 18 0.794495 80 3312 81 2872 82 3318
9793 -0.586794 -0.13555 0.700858 128 182 60 0.0985655 100 1188 101 1277 102 1252
7944 -2.26394 0.221344 0.698774 20 23 16 0.849297 87 4700 88 4309 89 3665 90 4047
7195 -2.08138 0.00591204 0.593219 184 127 38 0.450487 85 3207 86 3720 87 3814 88 3406 89 2895 90 3291 91 2815
5995 -2.5435 -0.112483 0.457973 38 30 13 0.829466 80 3329 81 2884 82 1859
5998 -2.21433 -0.0882454 0.398985 114 149 64 0.787922 80 1231 81 2898 82 1868
8278 -1.47983 -0.516776 1.14815 255 255 112 0.524299 91 2611 92 3417 93 2720
